ply
format ascii 1.0
element vertex 638
comment vertices
property float x
property float y
property float z
property uchar red
property uchar green
property uchar blue
end_header
-0.637099087238311768 1.01697373390197754 0.187609374523162842 185 173 120
-0.661754369735717773 0.699876248836517334 -0.945628762245178223 185 173 120
0.492169827222824097 0.553304851055145264 -0.98385918140411377 185 173 120
-0.628149092197418213 0.734768509864807129 -0.770491242408752441 185 173 120
-0.86526721715927124 1.07387852668762207 -0.0838329344987869263 185 173 120
-0.547250688076019287 0.863170802593231201 -0.573455631732940674 185 173 120
-0.836346983909606934 0.777360796928405762 -0.76733320951461792 185 173 120
0.15920671820640564 0.528755366802215576 -1.0541452169418335 185 173 120
0.890085577964782715 0.491809546947479248 -0.888530075550079346 185 173 120
-0.591868758201599121 1.02469241619110107 0.212907701730728149 185 173 120
0.525055289268493652 0.469545602798461914 -1.07088565826416016 185 173 120
0.00440816022455692291 0.401795446872711182 -1.04408371448516846 185 173 120
-0.52146148681640625 1.06545531749725342 0.203255310654640198 185 173 120
-0.741878688335418701 0.968512296676635742 -0.171079486608505249 185 173 120
0.53072744607925415 0.465998947620391846 -1.00972366333007812 185 173 120
-0.477383643388748169 1.00096428394317627 0.0594559647142887115 185 173 120
-0.439192891120910645 0.612598538398742676 -0.755920112133026123 185 173 120
0.795917332172393799 0.576032876968383789 -0.888870537281036377 185 173 120
-0.61490553617477417 1.06610965728759766 0.261784195899963379 185 173 120
-0.601083338260650635 1.00382876396179199 -0.0387731976807117462 185 173 120
-0.259755045175552368 0.373148143291473389 -1.0954594612121582 185 173 120
-0.148787736892700195 0.485154420137405396 -1.05649697780609131 185 173 120
0.346967697143554688 0.50974506139755249 -1.02657508850097656 185 173 120
-0.741997301578521729 0.92863011360168457 -0.299289464950561523 185 173 120
-0.00311355292797088623 0.560854911804199219 -0.985335886478424072 185 173 120
-0.297706812620162964 0.614423274993896484 -1.10136771202087402 185 173 120
0.621091902256011963 0.529115200042724609 -1.04627275466918945 185 173 120
0.753709614276885986 0.520088136196136475 -0.941511869430541992 185 173 120
0.633823096752166748 0.55870509147644043 -0.912116408348083496 185 173 120
-0.976699590682983398 0.828709602355957031 -0.646552860736846924 185 173 120
-0.983528554439544678 0.938193321228027344 -0.487589746713638306 185 173 120
-0.814750194549560547 0.819047689437866211 -0.675575911998748779 185 173 120
-0.722361385822296143 0.949089527130126953 -0.566217303276062012 185 173 120
-0.598342001438140869 1.0455479621887207 0.251780867576599121 185 173 120
0.526663422584533691 0.543957233428955078 -0.955163836479187012 185 173 120
-0.223976731300354004 0.515619754791259766 -0.988198339939117432 185 173 120
-0.0834195464849472046 0.577931463718414307 -1.13405203819274902 185 173 120
-0.560529947280883789 0.641185283660888672 -0.966298341751098633 185 173 120
0.132183670997619629 0.430389523506164551 -1.06307923793792725 185 173 120
0.108539417386054993 0.287860572338104248 -1.11310851573944092 185 173 120
-0.748662054538726807 1.03042769432067871 0.238284200429916382 185 173 120
-0.614595353603363037 1.0360870361328125 0.332452118396759033 185 173 120
0.195361167192459106 0.378768712282180786 -1.15416240692138672 185 173 120
-0.527821063995361328 0.610140562057495117 -0.960770845413208008 185 173 120
-0.880533874034881592 0.834512412548065186 -0.662861049175262451 185 173 120
-0.817504584789276123 0.934965968132019043 -0.321968793869018555 185 173 120
-0.183170557022094727 0.564586162567138672 -1.13542675971984863 185 173 120
0.554211318492889404 0.531413137912750244 -0.985733389854431152 185 173 120
-0.540047049522399902 1.0154954195022583 0.214569181203842163 185 173 120
-0.733515918254852295 0.908711671829223633 -0.383094698190689087 185 173 120
-0.928642213344573975 0.896739602088928223 -0.476980298757553101 185 173 120
-0.519593775272369385 0.943796455860137939 0.0110750198364257812 185 173 120
0.225698873400688171 0.356591343879699707 -1.14320826530456543 185 173 120
-0.803358614444732666 1.0289839506149292 -0.112072288990020752 185 173 120
-0.672326207160949707 0.998119175434112549 0.230357378721237183 185 173 120
-0.479011416435241699 0.701971650123596191 -0.800058186054229736 185 173 120
-0.104215107858181 0.471672803163528442 -1.07627725601196289 185 173 120
-0.58146136999130249 0.993558824062347412 -0.193186536431312561 185 173 120
-0.938198447227478027 0.915146112442016602 -0.401133358478546143 185 173 120
0.176965475082397461 0.46511569619178772 -1.07523214817047119 185 173 120
-0.664419591426849365 0.972069799900054932 -0.100001826882362366 185 173 120
-0.030558951199054718 0.163547232747077942 -1.04456353187561035 185 173 120
-0.548659741878509521 1.00405251979827881 0.0381186679005622864 185 173 120
0.0849120840430259705 0.226816922426223755 -1.08703625202178955 185 173 120
0.740110993385314941 0.445509076118469238 -1.01687276363372803 185 173 120
-0.755100369453430176 0.734754264354705811 -0.85528874397277832 185 173 120
-0.6638946533203125 0.99643254280090332 -0.0110412351787090302 185 173 120
-0.570987820625305176 0.669500648975372314 -1.04976582527160645 185 173 120
0.0846291258931159973 0.216305166482925415 -1.10756373405456543 185 173 120
-0.674871981143951416 0.869916558265686035 -0.547283649444580078 185 173 120
0.589717864990234375 0.461868494749069214 -0.931277275085449219 185 173 120
-0.708246767520904541 1.01155209541320801 0.204437598586082458 185 173 120
-0.158980801701545715 0.308595091104507446 -1.0524439811706543 185 173 120
0.175491511821746826 0.275098621845245361 -1.05520939826965332 185 173 120
-0.070150226354598999 0.093180142343044281 -1.07673740386962891 185 173 120
-0.468854635953903198 1.00776612758636475 -0.12719021737575531 185 173 120
0.301114946603775024 0.473194718360900879 -1.09477865695953369 185 173 120
-0.586848258972167969 1.03883647918701172 0.280983269214630127 185 173 120
-0.780814528465270996 1.01932632923126221 0.196776196360588074 185 173 120
-0.35441666841506958 0.641237258911132812 -0.974229633808135986 185 173 120
-0.0637497231364250183 0.459569692611694336 -1.09472024440765381 185 173 120
-0.495557278394699097 0.720206737518310547 -0.632903993129730225 185 173 120
-0.668438255786895752 1.05445992946624756 0.133944153785705566 185 173 120
-0.977053225040435791 0.999091625213623047 -0.430177837610244751 185 173 120
-0.237715184688568115 0.528485119342803955 -1.00973427295684814 185 173 120
-0.814098894596099854 0.830390095710754395 -0.652256011962890625 185 173 120
-0.0336564034223556519 0.457736968994140625 -1.18337655067443848 185 173 120
0.498788654804229736 0.518867433071136475 -1.08953499794006348 185 173 120
-0.90071028470993042 0.899141669273376465 -0.676024138927459717 185 173 120
0.111669823527336121 0.402200669050216675 -1.03415906429290771 185 173 120
0.10153256356716156 0.51035153865814209 -1.05836141109466553 185 173 120
-0.775175094604492188 1.05738568305969238 0.0531890764832496643 185 173 120
-0.81451106071472168 0.967663884162902832 -0.569282412528991699 185 173 120
0.595767378807067871 0.428969442844390869 -1.00202727317810059 185 173 120
0.290680587291717529 0.44919934868812561 -1.04184520244598389 185 173 120
-0.627385556697845459 0.927022695541381836 -0.545488834381103516 185 173 120
0.0670278966426849365 0.407817363739013672 -1.00007975101470947 185 173 120
-0.714059948921203613 1.06677913665771484 -0.159284532070159912 185 173 120
-0.585634410381317139 0.995949089527130127 0.233453378081321716 185 173 120
-0.191314801573753357 0.558816611766815186 -1.08978807926177979 185 173 120
-0.776090860366821289 1.04847574234008789 0.130811423063278198 185 173 120
-0.0809534043073654175 0.243170306086540222 -1.02280771732330322 185 173 120
0.0104045718908309937 0.521308839321136475 -1.10621678829193115 185 173 120
0.76786339282989502 0.612217366695404053 -0.927172064781188965 185 173 120
-0.918570756912231445 0.962502598762512207 -0.304153025150299072 185 173 120
-0.140302687883377075 0.082354620099067688 -1.0450899600982666 185 173 120
0.183948427438735962 0.4314098060131073 -1.01608109474182129 185 173 120
-0.181655079126358032 0.4151134192943573 -1.03087568283081055 185 173 120
-0.8459014892578125 0.838703453540802002 -0.641002655029296875 185 173 120
0.430864393711090088 0.4489574134349823 -1.12957620620727539 185 173 120
-0.743231117725372314 0.79611504077911377 -0.893087565898895264 185 173 120
-0.691696345806121826 0.987948954105377197 -0.368274033069610596 185 173 120
-0.413909316062927246 0.516006171703338623 -1.1608588695526123 185 173 120
-0.350866585969924927 0.313673853874206543 -1.02335143089294434 185 173 120
-0.166176304221153259 0.55078125 -0.983983874320983887 185 173 120
-0.487651288509368896 0.979004144668579102 -0.188036412000656128 185 173 120
0.386233061552047729 0.411501467227935791 -1.02017450332641602 185 173 120
-0.656389296054840088 0.922147393226623535 -0.208155363798141479 185 173 120
-0.713107466697692871 0.784300386905670166 -0.794982314109802246 185 173 120
0.0766624361276626587 0.349203914403915405 -1.07778787612915039 185 173 120
0.172950774431228638 0.546377182006835938 -1.089499831199646 185 173 120
-0.588679790496826172 0.88607478141784668 -0.399516582489013672 185 173 120
0.0265356898307800293 0.559205472469329834 -1.06257176399230957 185 173 120
-1.03654122352600098 0.859915494918823242 -0.540009617805480957 185 173 120
0.214527130126953125 0.29529649019241333 -1.08037614822387695 185 173 120
-0.053195953369140625 0.197821646928787231 -1.09730672836303711 185 173 120
-0.755506515502929688 0.944526910781860352 -0.185885682702064514 185 173 120
-0.312965601682662964 0.544737517833709717 -0.843313217163085938 185 173 120
-0.806342601776123047 0.96769261360168457 -0.195272237062454224 185 173 120
-0.495337098836898804 0.605066776275634766 -1.09745991230010986 185 173 120
-0.0950265005230903625 0.182820066809654236 -1.06627774238586426 185 173 120
0.521307051181793213 0.482435643672943115 -0.995419085025787354 185 173 120
-0.258525818586349487 0.52818220853805542 -1.12329113483428955 185 173 120
0.510323405265808105 0.454025924205780029 -0.98989415168762207 185 173 120
-0.762067079544067383 0.898908853530883789 -0.453262865543365479 185 173 120
-0.321867585182189941 0.586257874965667725 -0.888133108615875244 185 173 120
-0.633364379405975342 0.742103517055511475 -0.899052977561950684 185 173 120
-0.305145233869552612 0.570899546146392822 -1.12812924385070801 185 173 120
-0.625140607357025146 0.978719174861907959 0.283944398164749146 185 173 120
0.278056502342224121 0.541741490364074707 -1.00103151798248291 185 173 120
-0.032701496034860611 0.329343110322952271 -0.983093917369842529 185 173 120
-0.292096257209777832 0.431795895099639893 -0.974814176559448242 185 173 120
0.653104960918426514 0.528994083404541016 -0.95111161470413208 185 173 120
0.502218127250671387 0.542760848999023438 -1.01596438884735107 185 173 120
-0.575992703437805176 1.0281221866607666 0.328633129596710205 185 173 120
0.541208922863006592 0.533821940422058105 -1.03975379467010498 185 173 120
0.722692131996154785 0.602588891983032227 -0.906676888465881348 185 173 120
-0.766547262668609619 0.9313088059425354 -0.7247580885887146 185 173 120
-0.652581632137298584 1.02902364730834961 0.278519332408905029 185 173 120
-0.40131455659866333 0.782962203025817871 -0.55264747142791748 185 173 120
0.157314151525497437 0.419223517179489136 -1.03193485736846924 185 173 120
-0.83062511682510376 0.847258388996124268 -0.726871311664581299 185 173 120
-0.714196324348449707 0.931638181209564209 -0.523882508277893066 185 173 120
-0.514999747276306152 0.920201957225799561 -0.045744042843580246 185 173 120
0.303816258907318115 0.429328590631484985 -1.1104733943939209 185 173 120
-0.704698920249938965 0.7582663893699646 -0.872729599475860596 185 173 120
-0.721418857574462891 1.01016700267791748 0.254623830318450928 185 173 120
-0.468271255493164062 0.805922746658325195 -0.59351038932800293 185 173 120
-0.769766092300415039 0.929676294326782227 -0.440764576196670532 185 173 120
0.296664685010910034 0.492096871137619019 -0.993375897407531738 185 173 120
-0.867596685886383057 0.757131397724151611 -0.754060745239257812 185 173 120
-0.263363838195800781 0.596739053726196289 -0.983759164810180664 185 173 120
-0.26640164852142334 0.385173141956329346 -1.09731519222259521 185 173 120
-0.84011155366897583 0.827843904495239258 -0.673647880554199219 185 173 120
-0.593963503837585449 0.7565460205078125 -1.05163753032684326 185 173 120
0.517520725727081299 0.549499809741973877 -0.963770508766174316 185 173 120
-0.0316374562680721283 0.237625002861022949 -1.08765113353729248 185 173 120
-0.478385508060455322 0.632346510887145996 -1.0521550178527832 185 173 120
-0.564682960510253906 1.02945280075073242 -0.0683129951357841492 185 173 120
0.0986411124467849731 0.283305227756500244 -1.01952385902404785 185 173 120
0.354657232761383057 0.527214765548706055 -1.10380566120147705 185 173 120
-0.713704466819763184 0.976532220840454102 -0.224589645862579346 185 173 120
-0.607037544250488281 1.00307214260101318 0.0247763730585575104 185 173 120
-0.780669331550598145 1.00082659721374512 -0.134944483637809753 185 173 120
-0.895304441452026367 1.0068507194519043 -0.177099034190177917 185 173 120
0.515598297119140625 0.548063099384307861 -0.991875827312469482 185 173 120
-0.54554218053817749 0.922484993934631348 -0.374964058399200439 185 173 120
-0.614680290222167969 1.04035472869873047 0.346203237771987915 185 173 120
-0.448658227920532227 0.637952029705047607 -0.877545714378356934 185 173 120
0.516014933586120605 0.388309240341186523 -1.09064364433288574 185 173 120
0.0256746783852577209 0.174984604120254517 -1.04783296585083008 185 173 120
0.00899742171168327332 0.488244771957397461 -1.05756783485412598 185 173 120
-0.532498598098754883 0.992321968078613281 -0.135543644428253174 185 173 120
0.00633057206869125366 0.434604883193969727 -1.01991426944732666 185 173 120
0.691094636917114258 0.533220112323760986 -0.963583409786224365 185 173 120
-0.781990706920623779 1.04187071323394775 -0.185851112008094788 185 173 120
0.320918679237365723 0.533070862293243408 -1.06532430648803711 185 173 120
-0.775805115699768066 0.964874625205993652 -0.141649186611175537 185 173 120
-0.79763108491897583 0.802899062633514404 -0.615592479705810547 185 173 120
0.912293434143066406 0.589157223701477051 -0.856013834476470947 185 173 120
0.320172131061553955 0.447375118732452393 -1.03836572170257568 185 173 120
-0.401717245578765869 0.417367398738861084 -1.13344466686248779 185 173 120
-0.264142602682113647 0.580496788024902344 -0.931341648101806641 185 173 120
0.417183369398117065 0.483775079250335693 -0.961762905120849609 185 173 120
-0.251133203506469727 0.562216043472290039 -1.12546145915985107 185 173 120
0.0100998952984809875 0.232222259044647217 -1.07324302196502686 185 173 120
-0.688642680644989014 1.00446164608001709 0.000870081596076488495 185 173 120
0.59718930721282959 0.504873275756835938 -0.942782163619995117 185 173 120
-0.693396508693695068 0.647966444492340088 -0.800634443759918213 185 173 120
-0.620709240436553955 1.03720593452453613 0.266190946102142334 185 173 120
0.22065599262714386 0.465978145599365234 -1.06145024299621582 185 173 120
0.793000638484954834 0.423175007104873657 -0.960828900337219238 185 173 120
-0.26453050971031189 0.577714145183563232 -0.964234232902526855 185 173 120
0.353584051132202148 0.52177506685256958 -1.14029824733734131 185 173 120
-0.540609240531921387 0.867413640022277832 -0.690460920333862305 185 173 120
0.926701247692108154 0.510500848293304443 -0.823118031024932861 185 173 120
-0.538549900054931641 0.986300349235534668 -0.0712882727384567261 185 173 120
0.927238762378692627 0.602992415428161621 -0.856264770030975342 185 173 120
-0.0447533205151557922 0.445896238088607788 -1.05239665508270264 185 173 120
-0.283317089080810547 0.581858932971954346 -1.15508770942687988 185 173 120
0.0717786028981208801 0.462484002113342285 -1.11291337013244629 185 173 120
-0.674453556537628174 0.958617568016052246 -0.382330149412155151 185 173 120
-0.559591472148895264 1.03435122966766357 0.245193004608154297 185 173 120
-0.661940932273864746 0.978656113147735596 -0.221801444888114929 185 173 120
-0.618299245834350586 1.04131197929382324 0.181529179215431213 185 173 120
-0.603679358959197998 1.01718032360076904 -0.148998305201530457 185 173 120
-0.621778964996337891 1.03541660308837891 0.256135821342468262 185 173 120
0.0148266982287168503 0.486532777547836304 -1.03903520107269287 185 173 120
-0.342005640268325806 0.554656565189361572 -1.11889851093292236 185 173 120
-0.590125143527984619 0.995751261711120605 0.0230338610708713531 185 173 120
0.281183063983917236 0.462187439203262329 -1.07810056209564209 185 173 120
-0.65102839469909668 1.04899060726165771 0.281781375408172607 185 173 120
-0.568913042545318604 0.970780849456787109 -0.00602793321013450623 185 173 120
0.0857389122247695923 0.298438429832458496 -1.06977689266204834 185 173 120
-0.54862445592880249 0.988132655620574951 0.12796318531036377 185 173 120
-0.136461570858955383 0.161954551935195923 -1.05612659454345703 185 173 120
-0.64233553409576416 1.05584084987640381 0.168386667966842651 185 173 120
0.675759971141815186 0.587060272693634033 -0.930199980735778809 185 173 120
-0.672569155693054199 0.643525123596191406 -0.817046105861663818 185 173 120
-0.497095972299575806 0.931749463081359863 -0.615022897720336914 185 173 120
0.254932194948196411 0.490679144859313965 -1.07981860637664795 185 173 120
0.021297011524438858 0.43453863263130188 -1.15965700149536133 185 173 120
0.156522169709205627 0.5046120285987854 -1.06073963642120361 185 173 120
-0.753160834312438965 0.75444716215133667 -0.889320850372314453 185 173 120
0.0318551510572433472 0.407340198755264282 -1.18462693691253662 185 173 120
0.109007135033607483 0.48664546012878418 -1.08260679244995117 185 173 120
-0.56503218412399292 0.997902929782867432 0.287045180797576904 185 173 120
0.775467455387115479 0.539455115795135498 -0.924245536327362061 185 173 120
-0.734415352344512939 0.814228415489196777 -0.826881527900695801 185 173 120
-0.696291983127593994 0.627137064933776855 -0.889482557773590088 185 173 120
0.0364639200270175934 0.433886677026748657 -1.00349688529968262 185 173 120
0.134691148996353149 0.255454748868942261 -1.14384400844573975 185 173 120
-0.750441312789916992 0.9923553466796875 0.0771623402833938599 185 173 120
0.0134658208116889 0.170717746019363403 -1.04891932010650635 185 173 120
-0.710808038711547852 1.00476419925689697 -0.0924381017684936523 185 173 120
-0.654610931873321533 1.02354860305786133 0.248493745923042297 185 173 120
0.799125969409942627 0.502720057964324951 -0.894106268882751465 185 173 120
0.336365193128585815 0.472787529230117798 -1.0282522439956665 185 173 120
-0.649212479591369629 0.733277618885040283 -0.845964908599853516 185 173 120
0.332294881343841553 0.299292415380477905 -1.11662435531616211 185 173 120
0.670361220836639404 0.488921642303466797 -0.975402116775512695 185 173 120
-0.450674623250961304 0.702382743358612061 -0.77245408296585083 185 173 120
-0.698791265487670898 0.873339056968688965 -0.484245330095291138 185 173 120
-0.307717055082321167 0.584331035614013672 -1.08461916446685791 185 173 120
0.407290130853652954 0.462857335805892944 -1.06090438365936279 185 173 120
0.402303934097290039 0.508053004741668701 -0.991690278053283691 185 173 120
-0.678366422653198242 0.757122278213500977 -0.765973448753356934 185 173 120
0.794991672039031982 0.545441687107086182 -0.914791882038116455 185 173 120
-0.473701566457748413 1.00199258327484131 -0.137500867247581482 185 173 120
-0.490252077579498291 0.97787928581237793 -0.248263344168663025 185 173 120
0.188050657510757446 0.478723973035812378 -1.0611870288848877 185 173 120
0.485250383615493774 0.486972570419311523 -1.0334477424621582 185 173 120
-0.720157325267791748 0.749527156352996826 -0.946707069873809814 185 173 120
-0.0191615521907806396 0.411048918962478638 -1.13006782531738281 185 173 120
-0.607744991779327393 1.06030106544494629 -0.123956583440303802 185 173 120
-0.610907673835754395 0.970403075218200684 -0.149834170937538147 185 173 120
0.593616008758544922 0.571614325046539307 -0.924589931964874268 185 173 120
-0.0129300430417060852 0.484540104866027832 -1.10289537906646729 185 173 120
0.264039337635040283 0.38508489727973938 -1.10801792144775391 185 173 120
0.34876975417137146 0.430634170770645142 -0.99736708402633667 185 173 120
0.0758351832628250122 0.43568846583366394 -1.10074591636657715 185 173 120
0.524776935577392578 0.447018623352050781 -1.12135887145996094 185 173 120
-0.81273496150970459 0.79681551456451416 -0.645651817321777344 185 173 120
0.524327397346496582 0.463495582342147827 -0.996277451515197754 185 173 120
-0.0580989718437194824 0.200380563735961914 -1.0250852108001709 185 173 120
0.00698829954490065575 0.262219935655593872 -1.08707022666931152 185 173 120
-0.17939014732837677 0.615908443927764893 -0.92898869514465332 185 173 120
-0.601878225803375244 0.962632358074188232 -0.15804716944694519 185 173 120
0.295047134160995483 0.568204820156097412 -1.01215028762817383 185 173 120
0.0345768406987190247 0.230313852429389954 -1.1024477481842041 185 173 120
-0.767793178558349609 1.0279695987701416 0.204361677169799805 185 173 120
-0.725366771221160889 1.05783283710479736 -0.015658114105463028 185 173 120
0.235700681805610657 0.427586883306503296 -1.07987391948699951 185 173 120
-0.510661005973815918 0.68663555383682251 -1.02249288558959961 185 173 120
-0.0828984007239341736 0.230279788374900818 -1.01421976089477539 185 173 120
-0.260377705097198486 0.604355812072753906 -1.00544905662536621 185 173 120
-0.587629079818725586 1.03914594650268555 0.25626567006111145 185 173 120
-0.978375077247619629 0.924776792526245117 -0.548076987266540527 185 173 120
-0.64874112606048584 0.959036946296691895 -0.237648099660873413 185 173 120
0.11812061071395874 0.519079744815826416 -1.00705134868621826 185 173 120
-0.595949530601501465 0.988547980785369873 -0.153213411569595337 185 173 120
-0.389019221067428589 0.613560795783996582 -1.03056168556213379 185 173 120
-0.615771651268005371 0.965991079807281494 0.121302671730518341 185 173 120
0.185008272528648376 0.525542497634887695 -1.05560398101806641 185 173 120
-0.213593155145645142 0.533446431159973145 -0.989627718925476074 185 173 120
-0.577137589454650879 0.877175390720367432 -0.45406574010848999 185 173 120
-0.638042151927947998 0.675096809864044189 -1.01089417934417725 185 173 120
0.228846997022628784 0.51295769214630127 -1.09711158275604248 185 173 120
-0.685363054275512695 1.03401613235473633 0.249905988574028015 185 173 120
0.404311805963516235 0.400982409715652466 -1.08428740501403809 185 173 120
0.288003116846084595 0.384003043174743652 -1.02595758438110352 185 173 120
-0.60183560848236084 1.01575374603271484 0.22807370126247406 185 173 120
0.562420964241027832 0.514073312282562256 -1.03214931488037109 185 173 120
0.248467251658439636 0.451297789812088013 -1.02975785732269287 185 173 120
-0.0648149624466896057 0.396682232618331909 -1.13853180408477783 185 173 120
0.229685798287391663 0.414904206991195679 -1.12690877914428711 185 173 120
0.357579439878463745 0.446181952953338623 -1.03721654415130615 185 173 120
0.20386698842048645 0.43027535080909729 -1.08066391944885254 185 173 120
-1.0129554271697998 0.846589446067810059 -0.613752782344818115 185 173 120
-0.569471776485443115 0.884176075458526611 -0.484481126070022583 185 173 120
-0.195870563387870789 -0.932373881340026855 0.462778627872467041 114 4 191
-0.211089491844177246 -1.09177255630493164 0.832732796669006348 114 4 191
-0.238389670848846436 -0.900249660015106201 0.520250201225280762 114 4 191
-0.724983811378479004 -0.40220719575881958 0.493387520313262939 114 4 191
-0.829050898551940918 -0.0562582798302173615 0.433478474617004395 114 4 191
-0.192340031266212463 -0.955806612968444824 0.575532257556915283 114 4 191
-0.913483977317810059 0.0988988354802131653 0.681689620018005371 114 4 191
-0.232005313038825989 -1.05283033847808838 0.760184347629547119 114 4 191
-0.239279687404632568 -1.03909051418304443 0.880938827991485596 114 4 191
-0.314046978950500488 -0.997686684131622314 1.16130721569061279 114 4 191
-0.670285344123840332 -0.462218821048736572 0.547729194164276123 114 4 191
-0.223871976137161255 -0.934348523616790771 0.518682241439819336 114 4 191
-0.852244913578033447 -0.0622537881135940552 0.413890659809112549 114 4 191
-0.254444599151611328 -1.00287139415740967 0.700988471508026123 114 4 191
-0.280355989933013916 -0.836176455020904541 0.502844393253326416 114 4 191
-0.339818775653839111 -1.05854928493499756 1.07967710494995117 114 4 191
-0.164213597774505615 -1.02402639389038086 0.74843144416809082 114 4 191
-0.891300797462463379 0.0639611929655075073 0.323075979948043823 114 4 191
-0.361365556716918945 -0.777796506881713867 0.423777997493743896 114 4 191
-0.929623544216156006 -0.0490357354283332825 0.716275393962860107 114 4 191
-0.263829886913299561 -1.02073299884796143 0.979319274425506592 114 4 191
-0.945727348327636719 0.0746315941214561462 0.459608554840087891 114 4 191
-0.173954695463180542 -0.988154828548431396 0.513670682907104492 114 4 191
-0.273302555084228516 -1.02615499496459961 1.02182567119598389 114 4 191
-0.212465643882751465 -1.08245241641998291 0.874595820903778076 114 4 191
-0.554846644401550293 -0.569640815258026123 0.305061519145965576 114 4 191
-0.264638125896453857 -0.952136099338531494 1.23031795024871826 114 4 191
-0.937920093536376953 0.171139821410179138 0.756164789199829102 114 4 191
-0.171796604990959167 -1.03831541538238525 0.864772200584411621 114 4 191
-0.316061526536941528 -1.02225029468536377 1.17268896102905273 114 4 191
-0.909331083297729492 0.0462421700358390808 0.720255851745605469 114 4 191
-0.747092366218566895 -0.193684741854667664 0.443876683712005615 114 4 191
-0.716092705726623535 -0.397428333759307861 0.458944261074066162 114 4 191
-0.372964620590209961 -0.818135380744934082 0.415333688259124756 114 4 191
-0.914794802665710449 -0.075978495180606842 0.512427926063537598 114 4 191
-0.159634247422218323 -1.10039031505584717 0.739103555679321289 114 4 191
-0.184427767992019653 -1.0851142406463623 0.709493517875671387 114 4 191
-0.716517984867095947 -0.474347233772277832 0.362805426120758057 114 4 191
-0.152716100215911865 -1.13692641258239746 0.805452227592468262 114 4 191
-0.253246277570724487 -1.06144475936889648 1.11017513275146484 114 4 191
-0.197228804230690002 -1.08364677429199219 0.94862830638885498 114 4 191
-0.227998331189155579 -0.908957719802856445 0.509217321872711182 114 4 191
-0.176703929901123047 -1.01535797119140625 0.662349522113800049 114 4 191
-0.300924181938171387 -0.820203185081481934 0.448763668537139893 114 4 191
-0.407216519117355347 -0.668568909168243408 0.279883533716201782 114 4 191
-0.217315927147865295 -1.07528269290924072 0.840215206146240234 114 4 191
-0.254742860794067383 -0.964381217956542969 0.801829636096954346 114 4 191
-0.886558413505554199 -0.0590885244309902191 0.636562764644622803 114 4 191
-0.330075114965438843 -0.765909731388092041 0.329215705394744873 114 4 191
-0.289651662111282349 -0.845999479293823242 0.467097640037536621 114 4 191
-0.189538717269897461 -1.04731333255767822 0.751410901546478271 114 4 191
-0.20248723030090332 -0.997330367565155029 0.630729198455810547 114 4 191
-0.260012805461883545 -0.849045991897583008 0.317436248064041138 114 4 191
-0.71384894847869873 -0.388043522834777832 0.434732109308242798 114 4 191
-0.264398068189620972 -1.11239194869995117 1.05230081081390381 114 4 191
-0.146594226360321045 -0.942457675933837891 0.421433717012405396 114 4 191
-0.278531551361083984 -1.01073801517486572 1.13123965263366699 114 4 191
-0.818940401077270508 -0.171951860189437866 0.551838994026184082 114 4 191
-0.291645526885986328 -0.960967659950256348 0.551154971122741699 114 4 191
-0.322812706232070923 -0.866928279399871826 0.391661703586578369 114 4 191
-0.181809321045875549 -0.990584731101989746 0.567901253700256348 114 4 191
-0.948994219303131104 0.178388342261314392 0.729755818843841553 114 4 191
-0.333037316799163818 -0.989075303077697754 1.13987433910369873 114 4 191
-0.638020575046539307 -0.383076518774032593 0.240974366664886475 114 4 191
-0.21124267578125 -1.1069488525390625 0.861820340156555176 114 4 191
-0.187946423888206482 -1.00137960910797119 0.60598224401473999 114 4 191
-0.406417787075042725 -0.696235001087188721 0.393794238567352295 114 4 191
-1.03228747844696045 0.241022706031799316 0.554655790328979492 114 4 191
-0.187978476285934448 -1.00591862201690674 0.660117030143737793 114 4 191
-0.974846363067626953 0.131418049335479736 0.508826613426208496 114 4 191
-0.128727525472640991 -1.01878249645233154 0.659081101417541504 114 4 191
-0.20733797550201416 -1.02201271057128906 0.839072585105895996 114 4 191
-0.908864676952362061 -0.00619351305067539215 0.4049549400806427 114 4 191
-0.997455596923828125 0.241445600986480713 0.706449568271636963 114 4 191
-0.11569669097661972 -1.04523956775665283 0.759547173976898193 114 4 191
-0.31047019362449646 -0.972243368625640869 0.732860445976257324 114 4 191
-0.18184700608253479 -1.04691660404205322 0.739812493324279785 114 4 191
-0.726205110549926758 -0.361103832721710205 0.495899051427841187 114 4 191
-0.944778800010681152 0.064710661768913269 0.525150597095489502 114 4 191
-0.975994706153869629 0.146875500679016113 0.681114852428436279 114 4 191
-0.370784908533096313 -1.00019621849060059 1.17067253589630127 114 4 191
-0.235161975026130676 -0.992805600166320801 0.965757071971893311 114 4 191
-0.265390783548355103 -0.849645376205444336 0.350254565477371216 114 4 191
-0.189832121133804321 -1.08271479606628418 0.833791434764862061 114 4 191
-0.241935282945632935 -0.852726340293884277 0.448587536811828613 114 4 191
-0.8263816237449646 -0.123771488666534424 0.34419676661491394 114 4 191
-0.259009689092636108 -1.0563274621963501 0.948470354080200195 114 4 191
-0.186598002910614014 -1.0220179557800293 0.584516465663909912 114 4 191
-0.2392769455909729 -1.15441215038299561 0.853030681610107422 114 4 191
-0.353958725929260254 -0.764025568962097168 0.357705086469650269 114 4 191
-0.303303122520446777 -0.97564464807510376 1.18958115577697754 114 4 191
-0.87579423189163208 -0.0493471473455429077 0.637592494487762451 114 4 191
-0.32777068018913269 -0.989513397216796875 1.18969452381134033 114 4 191
-0.698805928230285645 -0.287604689598083496 0.408838391304016113 114 4 191
-0.518146693706512451 -0.539398491382598877 0.196585878729820251 114 4 191
-0.995144844055175781 0.16109156608581543 0.705521285533905029 114 4 191
-0.76882094144821167 -0.210230454802513123 0.602205038070678711 114 4 191
-0.681376397609710693 -0.45695042610168457 0.537171781063079834 114 4 191
-0.701175391674041748 -0.332683384418487549 0.416411161422729492 114 4 191
-0.797437548637390137 -0.210573479533195496 0.547731697559356689 114 4 191
-0.477650821208953857 -0.631385564804077148 0.337284088134765625 114 4 191
-0.288218080997467041 -0.75657188892364502 0.285384684801101685 114 4 191
-0.275510102510452271 -0.878834187984466553 0.325722843408584595 114 4 191
-0.440981119871139526 -0.707297146320343018 0.332079589366912842 114 4 191
-0.802838444709777832 -0.179594352841377258 0.551761150360107422 114 4 191
-0.688873648643493652 -0.43924066424369812 0.519502997398376465 114 4 191
-0.290716886520385742 -1.05568993091583252 1.01944386959075928 114 4 191
-0.217448890209197998 -0.962415218353271484 0.588094115257263184 114 4 191
-0.716318011283874512 -0.324641764163970947 0.325835198163986206 114 4 191
-0.267688095569610596 -0.823515057563781738 0.370708942413330078 114 4 191
-0.935236871242523193 0.126857787370681763 0.703672051429748535 114 4 191
-0.219569772481918335 -1.02230381965637207 0.591784238815307617 114 4 191
-0.975373506546020508 0.152928262948989868 0.651237368583679199 114 4 191
-0.312184631824493408 -1.00230705738067627 1.1404489278793335 114 4 191
-0.129018515348434448 -1.02833664417266846 0.701468169689178467 114 4 191
-0.353318244218826294 -0.708568930625915527 0.26880943775177002 114 4 191
-0.801842868328094482 -0.256378233432769775 0.302035123109817505 114 4 191
-0.286152243614196777 -0.974109232425689697 0.572069942951202393 114 4 191
-0.281393498182296753 -1.02566289901733398 1.06230127811431885 114 4 191
-0.168845489621162415 -0.988478004932403564 0.506237983703613281 114 4 191
-0.707937300205230713 -0.481063306331634521 0.422241270542144775 114 4 191
-0.25716012716293335 -1.09338474273681641 1.08370280265808105 114 4 191
-0.246692270040512085 -1.08748507499694824 0.934022247791290283 114 4 191
-0.928171634674072266 0.115448512136936188 0.488415002822875977 114 4 191
-0.335278481245040894 -1.02867615222930908 1.1342540979385376 114 4 191
-0.314853072166442871 -0.763895809650421143 0.35838472843170166 114 4 191
-0.695749402046203613 -0.336314290761947632 0.346033811569213867 114 4 191
-0.779231131076812744 -0.358226239681243896 0.563331305980682373 114 4 191
-0.957715809345245361 0.0887205973267555237 0.65632319450378418 114 4 191
-0.687861859798431396 -0.439726293087005615 0.27438846230506897 114 4 191
-0.997365713119506836 0.146839290857315063 0.690312445163726807 114 4 191
-0.104009509086608887 -1.09750533103942871 0.837343394756317139 114 4 191
-0.919849514961242676 0.0616891160607337952 0.801667332649230957 114 4 191
-0.39123612642288208 -0.688974738121032715 0.295156300067901611 114 4 191
-0.185394302010536194 -0.972786426544189453 0.58433067798614502 114 4 191
-0.147701054811477661 -0.925483584403991699 0.408204615116119385 114 4 191
-0.266231328248977661 -0.852666079998016357 0.389885395765304565 114 4 191
-0.183981820940971375 -0.948092520236968994 0.37710493803024292 114 4 191
-0.193702325224876404 -0.995882868766784668 0.778382003307342529 114 4 191
-0.251745790243148804 -0.826078355312347412 0.393480658531188965 114 4 191
-0.928567349910736084 0.0531548857688903809 0.512983739376068115 114 4 191
-0.253316015005111694 -0.919235944747924805 0.557821333408355713 114 4 191
-0.714840948581695557 -0.450317293405532837 0.365700274705886841 114 4 191
-0.91018301248550415 -0.141447097063064575 0.651271402835845947 114 4 191
-0.906325876712799072 0.063155248761177063 0.472245693206787109 114 4 191
-0.911910176277160645 0.0267310086637735367 0.570326089859008789 114 4 191
-0.295911610126495361 -1.00498330593109131 1.05945324897766113 114 4 191
-0.905170679092407227 -0.0292263031005859375 0.683710753917694092 114 4 191
-0.292144894599914551 -0.960288524627685547 1.18573617935180664 114 4 191
-0.32291942834854126 -1.00004982948303223 1.13095402717590332 114 4 191
-0.396032989025115967 -0.886098265647888184 0.79144662618637085 114 4 191
-0.227768361568450928 -1.025748610496521 1.00066423416137695 114 4 191
-1.00265133380889893 0.178201645612716675 0.607908904552459717 114 4 191
-0.197147652506828308 -1.06492424011230469 0.834967553615570068 114 4 191
-0.190656721591949463 -1.1064913272857666 0.924235761165618896 114 4 191
-0.950374484062194824 0.171645373106002808 0.737506568431854248 114 4 191
-0.21379968523979187 -1.01362168788909912 0.639775753021240234 114 4 191
-0.22273215651512146 -1.0403667688369751 0.672456979751586914 114 4 191
-0.185159057378768921 -1.10512423515319824 0.826108455657958984 114 4 191
-0.360580742359161377 -0.885464012622833252 0.860914170742034912 114 4 191
-0.989308476448059082 0.209712326526641846 0.762748837471008301 114 4 191
-0.139532953500747681 -0.915199995040893555 0.432134568691253662 114 4 191
-0.203328326344490051 -1.01299810409545898 0.758404850959777832 114 4 191
-0.283417046070098877 -0.789582967758178711 0.379074662923812866 114 4 191
-0.178525656461715698 -1.01783132553100586 0.665654122829437256 114 4 191
-0.316938191652297974 -0.978380918502807617 1.15840303897857666 114 4 191
-0.20203419029712677 -1.06180274486541748 0.761341989040374756 114 4 191
-0.152707949280738831 -1.0065542459487915 0.663843333721160889 114 4 191
-0.364698648452758789 -0.72868955135345459 0.24078582227230072 114 4 191
-0.22447320818901062 -0.994456470012664795 0.611506462097167969 114 4 191
-0.188998788595199585 -1.00126540660858154 0.512562096118927002 114 4 191
-0.274261415004730225 -1.01061630249023438 1.06427264213562012 114 4 191
-0.22375701367855072 -1.03416776657104492 0.830010771751403809 114 4 191
-0.254377663135528564 -0.962829649448394775 0.650602281093597412 114 4 191
-0.308937758207321167 -0.815374374389648438 0.377497643232345581 114 4 191
-0.287080317735671997 -1.00194108486175537 0.993567228317260742 114 4 191
-0.390534788370132446 -0.668799757957458496 0.349882066249847412 114 4 191
-0.180215984582901001 -0.965654134750366211 0.567535638809204102 114 4 191
-0.240628823637962341 -1.09733343124389648 0.973894774913787842 114 4 191
-0.998343825340270996 0.18021586537361145 0.525071203708648682 114 4 191
-0.14457567036151886 -1.06823539733886719 0.667396485805511475 114 4 191
-0.290776818990707397 -0.77926170825958252 0.407531857490539551 114 4 191
-0.91438746452331543 -0.0271642245352268219 0.630679309368133545 114 4 191
-0.947263836860656738 0.116644725203514099 0.671086966991424561 114 4 191
-0.920708000659942627 0.0860766544938087463 0.597596287727355957 114 4 191
-0.458837121725082397 -0.633780121803283691 0.384073913097381592 114 4 191
-0.425824075937271118 -0.680261552333831787 0.360349297523498535 114 4 191
-0.173645496368408203 -1.09775018692016602 0.860232114791870117 114 4 191
-0.239021852612495422 -1.00511837005615234 1.03598999977111816 114 4 191
-0.749502778053283691 -0.340203434228897095 0.485314637422561646 114 4 191
-0.927799344062805176 0.0722374841570854187 0.366975456476211548 114 4 191
-1.00882613658905029 0.136928573250770569 0.461167842149734497 114 4 191
-0.269868463277816772 -1.06105446815490723 1.13595926761627197 114 4 191
-0.263106584548950195 -0.936255693435668945 0.575453221797943115 114 4 191
-1.00158703327178955 0.203115746378898621 0.574839472770690918 114 4 191
-0.149874091148376465 -0.956186234951019287 0.581877410411834717 114 4 191
-0.971347808837890625 0.156783640384674072 0.532010495662689209 114 4 191
-0.85676729679107666 -0.109023436903953552 0.56758880615234375 114 4 191
-0.752423763275146484 -0.406996607780456543 0.387154430150985718 114 4 191
-0.901389002799987793 -0.0519970282912254333 0.58808588981628418 114 4 191
-0.997988641262054443 0.203477337956428528 0.547038912773132324 114 4 191
-0.271984279155731201 -1.04764187335968018 0.991828262805938721 114 4 191
-0.342130124568939209 -1.04314839839935303 1.13657093048095703 114 4 191
-0.826179206371307373 -0.0736214220523834229 0.479732334613800049 114 4 191
-0.223464474081993103 -1.0802457332611084 0.732709169387817383 114 4 191
-0.411409288644790649 -0.765575110912322998 0.362506747245788574 114 4 191
-0.31543278694152832 -0.819227278232574463 0.443463981151580811 114 4 191
-0.3030853271484375 -0.80434715747833252 0.405704915523529053 114 4 191
-0.428529709577560425 -0.69317096471786499 0.339576274156570435 114 4 191
-0.496874719858169556 -0.568100690841674805 0.234607219696044922 114 4 191
-0.438503563404083252 -0.635528266429901123 0.342342764139175415 114 4 191
-0.184613004326820374 -1.09850382804870605 0.706525146961212158 114 4 191
-0.191071107983589172 -1.0844724178314209 0.783819198608398438 114 4 191
-0.981581568717956543 0.181975811719894409 0.551312029361724854 114 4 191
-0.979122638702392578 0.0897288396954536438 0.692125260829925537 114 4 191
-0.967899322509765625 0.100504636764526367 0.632619380950927734 114 4 191
-0.223363965749740601 -0.92582780122756958 0.61543649435043335 114 4 191
-0.792256295680999756 -0.240065082907676697 0.445584416389465332 114 4 191
-0.385924786329269409 -0.751266598701477051 0.338869392871856689 114 4 191
-0.995657980442047119 0.225447431206703186 0.728342771530151367 114 4 191
-0.966593146324157715 0.206932410597801208 0.583148956298828125 114 4 191
-0.557507753372192383 -0.554762423038482666 0.345932364463806152 114 4 191
-0.266369074583053589 -1.09619510173797607 0.959632635116577148 114 4 191
-0.95360177755355835 0.0582543686032295227 0.535201966762542725 114 4 191
-0.401663929224014282 -0.886390924453735352 0.759507656097412109 114 4 191
-0.888556480407714844 -0.0436178930103778839 0.429571807384490967 114 4 191
-0.877450883388519287 -0.0176721550524234772 0.491984903812408447 114 4 191
-0.946645379066467285 0.146902307868003845 0.58255314826965332 114 4 191
-0.902148067951202393 -0.0287566334009170532 0.614737510681152344 114 4 191
-0.980065405368804932 0.173437029123306274 0.470657765865325928 114 4 191
-0.944275319576263428 0.184279888868331909 0.654718279838562012 114 4 191
-0.294503539800643921 -1.01057314872741699 1.17581069469451904 114 4 191
-0.33667987585067749 -0.952429413795471191 1.15542685985565186 114 4 191
-0.198950678110122681 -1.06899499893188477 0.768509566783905029 114 4 191
-0.24072544276714325 -0.860840559005737305 0.404519259929656982 114 4 191
-0.360340535640716553 -0.672058582305908203 0.263739615678787231 114 4 191
-0.226262927055358887 -1.09838879108428955 1.06946766376495361 114 4 191
-0.883596479892730713 0.0047921985387802124 0.467809826135635376 114 4 191
-0.743912339210510254 -0.220595195889472961 0.331947684288024902 114 4 191
-0.903459906578063965 0.0318063832819461823 0.543859541416168213 114 4 191
-0.300098836421966553 -0.932878553867340088 0.855470657348632812 114 4 191
-0.283272713422775269 -0.967660486698150635 0.808940291404724121 114 4 191
-0.226571589708328247 -1.08770418167114258 1.0084000825881958 114 4 191
-0.36304086446762085 -0.748569369316101074 0.390029847621917725 114 4 191
-0.722932815551757812 -0.22325858473777771 0.408065646886825562 114 4 191
-0.692994475364685059 -0.492349863052368164 0.305326938629150391 114 4 191
-0.211761176586151123 -0.961391150951385498 0.479982972145080566 114 4 191
-0.732650995254516602 -0.39524918794631958 0.360479056835174561 114 4 191
-0.582628726959228516 -0.43956717848777771 0.289231598377227783 114 4 191
-0.292803913354873657 -0.806540191173553467 0.388019025325775146 114 4 191
-0.224755257368087769 -1.05793476104736328 0.913852214813232422 114 4 191
-0.16463451087474823 -1.01638340950012207 0.556088149547576904 114 4 191
-0.319191187620162964 -0.951554358005523682 0.750171124935150146 114 4 191
-0.224715501070022583 -0.929287970066070557 0.549787163734436035 114 4 191
-0.253968417644500732 -0.827927172183990479 0.449594229459762573 114 4 191
-0.293612539768218994 -0.855379402637481689 0.499841302633285522 114 4 191
-0.197812870144844055 -0.939643263816833496 0.458821356296539307 114 4 191
-0.162110745906829834 -1.09612023830413818 0.920328319072723389 114 4 191
-0.877038776874542236 -0.158673718571662903 0.646194159984588623 114 4 191
-0.240593791007995605 -0.948774039745330811 0.5210723876953125 114 4 191
-0.299620747566223145 -1.03983402252197266 1.0790024995803833 114 4 191
-0.201869890093803406 -1.09335541725158691 0.918325901031494141 114 4 191
-0.154597014188766479 -1.04130816459655762 0.64885789155960083 114 4 191
-0.480725079774856567 -0.520471274852752686 0.240937888622283936 114 4 191
-0.914549529552459717 0.0786009654402732849 0.691403865814208984 114 4 191
-0.729752898216247559 -0.32772451639175415 0.374333411455154419 114 4 191
-0.60326850414276123 -0.642649173736572266 0.319311231374740601 114 4 191
-0.974373459815979004 0.140982970595359802 0.594175100326538086 114 4 191
-0.190579742193222046 -1.03491568565368652 0.777308523654937744 114 4 191
-0.214468449354171753 -0.981274068355560303 0.620010852813720703 114 4 191
-0.174563467502593994 -0.974390149116516113 0.480226814746856689 114 4 191
-0.517058730125427246 -0.57349926233291626 0.297912120819091797 114 4 191
-0.808899521827697754 -0.154045641422271729 0.393368959426879883 114 4 191
-0.18474927544593811 -1.09954702854156494 0.667525649070739746 114 4 191
-0.902870774269104004 0.150803178548812866 0.458534002304077148 114 4 191
-0.227431803941726685 -1.07227730751037598 0.869969367980957031 114 4 191
-0.295102834701538086 -0.956881880760192871 0.653162896633148193 114 4 191
-0.20469328761100769 -1.05336189270019531 0.547811388969421387 114 4 191
-1.06798315048217773 0.239977017045021057 0.714064836502075195 114 4 191
-0.21316179633140564 -0.997670650482177734 0.63543623685836792 114 4 191
-0.968710184097290039 0.207196503877639771 0.662918269634246826 114 4 191
-0.221921518445014954 -0.952991604804992676 0.572149336338043213 114 4 191
-0.933932125568389893 0.0767483338713645935 0.665640711784362793 114 4 191
-0.397034049034118652 -0.759664475917816162 0.389073431491851807 114 4 191
-0.862551331520080566 -0.0205786079168319702 0.518810868263244629 114 4 191
-0.782844245433807373 -0.161596089601516724 0.348126679658889771 114 4 191
-0.201542168855667114 -1.04398810863494873 0.662875235080718994 114 4 191
-0.285482168197631836 -0.893503665924072266 0.509178340435028076 114 4 191
-0.290859133005142212 -0.994814276695251465 1.14514851570129395 114 4 191
-0.212486296892166138 -1.04769837856292725 0.759788870811462402 114 4 191
-0.312905222177505493 -1.02036213874816895 0.941346824169158936 114 4 191
-0.276725411415100098 -1.04339826107025146 1.11818861961364746 114 4 191
-0.232666671276092529 -0.920597434043884277 0.606877565383911133 114 4 191
-0.741654098033905029 -0.354750663042068481 0.30234798789024353 114 4 191
-0.20347246527671814 -1.02670657634735107 0.569706737995147705 114 4 191
-0.909762442111968994 0.0418454743921756744 0.666572630405426025 114 4 191
-0.237618610262870789 -1.07881045341491699 0.84170001745223999 114 4 191
-0.246866524219512939 -1.03586065769195557 0.993313968181610107 114 4 191
-0.234044432640075684 -0.978964865207672119 0.653627216815948486 114 4 191
-0.242561176419258118 -0.934804022312164307 0.623730301856994629 114 4 191
-0.376489013433456421 -0.664241790771484375 0.306420087814331055 114 4 191
-0.153425514698028564 -1.02874302864074707 0.613818526268005371 114 4 191
-0.137752339243888855 -1.09407210350036621 0.781702697277069092 114 4 191
-0.405143707990646362 -0.730450749397277832 0.350081324577331543 114 4 191
-0.347230136394500732 -0.98328101634979248 1.10498714447021484 114 4 191
-0.259145379066467285 -1.02661287784576416 0.98014378547668457 114 4 191
-0.584731519222259521 -0.480234205722808838 0.35391649603843689 114 4 191
-0.734948396682739258 -0.31109657883644104 0.292745113372802734 114 4 191
-0.298867970705032349 -0.759120523929595947 0.389925003051757812 114 4 191
-0.962961316108703613 0.174595564603805542 0.775558114051818848 114 4 191
-0.263346284627914429 -0.999956250190734863 0.621637463569641113 114 4 191
-0.465637505054473877 -0.697801828384399414 0.714332997798919678 114 4 191
-0.37381446361541748 -0.698505222797393799 0.372654378414154053 114 4 191
-0.283027321100234985 -0.881786048412322998 0.475365042686462402 114 4 191
-0.279159039258956909 -0.900188565254211426 0.408663958311080933 114 4 191
-0.932140231132507324 -0.0244664903730154037 0.464677125215530396 114 4 191
-0.586499452590942383 -0.486924082040786743 0.474714726209640503 114 4 191
-0.347459197044372559 -1.03487920761108398 1.12849843502044678 114 4 191
-0.152029797434806824 -1.05601894855499268 0.604252755641937256 114 4 191
-1.04377305507659912 0.226735666394233704 0.600596427917480469 114 4 191
-0.201952353119850159 -0.998526453971862793 0.64170074462890625 114 4 191
-0.948531568050384521 0.134883135557174683 0.738040626049041748 114 4 191
-0.990191817283630371 0.189149469137191772 0.445156842470169067 114 4 191
-0.219622761011123657 -1.01059579849243164 0.609614849090576172 114 4 191
-0.250801205635070801 -0.848181366920471191 0.370017945766448975 114 4 191
-0.13293100893497467 -1.05892717838287354 0.751575231552124023 114 4 191
-0.851058304309844971 -0.187084197998046875 0.552727043628692627 114 4 191
-0.769343256950378418 -0.334874093532562256 0.493467211723327637 114 4 191
