ply
format ascii 1.0
element vertex 749
comment vertices
property float x
property float y
property float z
end_header
-0.680567622184753418 -0.550398707389831543 -0.643704831600189209
0.559133827686309814 -0.18657568097114563 0.741321206092834473
0.596159517765045166 -0.693084120750427246 -0.171840861439704895
-0.565940380096435547 -0.823591470718383789 -0.424849420785903931
0.684274196624755859 -0.555393218994140625 -0.314843147993087769
-0.707250654697418213 -0.863302707672119141 -0.325639307498931885
-0.586128890514373779 -0.931265056133270264 -0.354383081197738647
-0.41206735372543335 1.18453216552734375 1.07330095767974854
0.0668307170271873474 -1.03716063499450684 0.869349539279937744
0.00567267974838614464 0.685788571834564209 -1.2990260124206543
-0.581171870231628418 0.308611959218978882 -1.25698566436767578
0.676090538501739502 -0.498328447341918945 0.325837939977645874
0.123682752251625061 1.09781253337860107 0.807036697864532471
-0.0540915988385677338 0.680150151252746582 -1.32640218734741211
0.310183465480804443 -1.14737570285797119 0.501821994781494141
0.666858017444610596 -0.268796563148498535 0.451909750699996948
0.196372449398040771 0.412595927715301514 -0.759028077125549316
-0.662123560905456543 0.283934712409973145 -1.0888369083404541
-0.67250978946685791 -0.0263369381427764893 -0.631312012672424316
-0.0705627724528312683 -0.979024350643157959 1.11431324481964111
-0.676600456237792969 0.265642166137695312 -1.167854905128479
-0.64977794885635376 -0.712954938411712646 -0.243203595280647278
0.0617002397775650024 0.825970649719238281 -1.26489949226379395
0.0846006870269775391 1.07523739337921143 0.898335635662078857
0.649389982223510742 -0.714302420616149902 0.294517993927001953
0.11727258563041687 -1.24163448810577393 0.346641093492507935
0.321330547332763672 -1.07668137550354004 0.481678187847137451
-0.140186995267868042 1.12376213073730469 0.942242085933685303
-0.711007237434387207 -0.796428143978118896 -0.318292379379272461
-0.342822253704071045 1.01289510726928711 1.41400623321533203
-0.548577070236206055 0.369446814060211182 -1.23671090602874756
0.252760529518127441 0.604459166526794434 -0.806921839714050293
0.136459305882453918 -1.22206795215606689 0.34719538688659668
0.611998379230499268 -0.0494185388088226318 0.381342768669128418
0.0653143823146820068 -1.1189197301864624 0.772385716438293457
-0.509049594402313232 0.614637017250061035 -1.50975823402404785
0.261514663696289062 -1.18145132064819336 0.358695775270462036
-0.568791210651397705 1.02737200260162354 1.07447052001953125
0.599154412746429443 -0.426589101552963257 -0.492126047611236572
-0.7105712890625 -0.704446494579315186 -0.177172020077705383
0.665496408939361572 -0.42621147632598877 0.301047563552856445
-0.248238816857337952 0.685988724231719971 -1.35943269729614258
-0.783020079135894775 0.114131897687911987 -0.02840438112616539
-0.0363403372466564178 -0.917529165744781494 1.14892840385437012
-0.119368515908718109 0.803869009017944336 -1.40187954902648926
-0.578891575336456299 -1.00869548320770264 -0.248042270541191101
0.413782298564910889 0.748210549354553223 0.874289989471435547
-0.785077571868896484 0.079199373722076416 -0.0809074193239212036
-0.593473196029663086 -0.946393668651580811 -0.391297429800033569
0.287804067134857178 0.513786435127258301 -0.885251879692077637
-0.336119145154953003 0.672954261302947998 -1.53217542171478271
-0.741202473640441895 -0.0353479720652103424 -0.214360669255256653
-0.584840297698974609 -1.01258242130279541 -0.21750245988368988
0.739153802394866943 -0.323009014129638672 0.0614898949861526489
0.426122486591339111 0.602452397346496582 0.608627915382385254
-0.13835790753364563 0.792702555656433105 -1.39133203029632568
0.295284688472747803 0.938943982124328613 0.646981298923492432
-0.034196607768535614 1.29324257373809814 -0.97452092170715332
-0.391588181257247925 1.15242123603820801 1.28705191612243652
-0.688596248626708984 -0.10956689715385437 -0.730822205543518066
0.220942869782447815 0.839436054229736328 -1.33328819274902344
0.167194843292236328 1.07663977146148682 -1.26617133617401123
-0.691626846790313721 0.146648645401000977 0.189120307564735413
0.195222750306129456 1.02689623832702637 -1.30119585990905762
0.249852567911148071 1.07112371921539307 0.701258718967437744
0.566643118858337402 -0.508109092712402344 0.283857434988021851
-0.62767338752746582 -0.613190650939941406 -0.648466348648071289
-0.317498594522476196 0.862237155437469482 1.5511244535446167
-0.609023153781890869 -0.031255919486284256 -0.936466574668884277
-0.491288244724273682 0.574427545070648193 -1.36685192584991455
-0.694622695446014404 0.479756057262420654 1.08613061904907227
0.558453083038330078 -0.839385449886322021 0.260038375854492188
-0.123502179980278015 0.734313547611236572 -1.43707048892974854
-0.661084473133087158 -0.755043506622314453 -0.204271569848060608
0.322007834911346436 -1.14536821842193604 0.416688024997711182
0.306780844926834106 0.879914999008178711 0.634314060211181641
-0.239380300045013428 0.687604665756225586 -1.35899019241333008
0.159518375992774963 1.19253623485565186 -1.15741133689880371
-0.687562406063079834 -0.87623065710067749 -0.360328376293182373
0.311860024929046631 0.709903717041015625 0.926279604434967041
0.180255666375160217 1.0999830961227417 0.723652362823486328
-0.00560753699392080307 -0.930985987186431885 1.13108694553375244
-0.0735618695616722107 -0.899489402770996094 1.04122865200042725
0.553485870361328125 -0.786005079746246338 0.0420568883419036865
0.594192564487457275 -0.472562223672866821 -0.327119797468185425
-0.57780158519744873 0.593534290790557861 -1.38163185119628906
-0.624949991703033447 0.983992457389831543 1.08342194557189941
0.132291510701179504 1.15083491802215576 -1.0899118185043335
-0.0851364508271217346 -0.600311756134033203 1.36954677104949951
0.649534702301025391 -0.272304296493530273 0.0742989182472229004
-0.639104723930358887 -0.956232070922851562 -0.193831309676170349
-0.00529527664184570312 -0.920087933540344238 1.13152015209197998
0.294447481632232666 -1.09386181831359863 0.339151591062545776
-0.668909251689910889 0.152870327234268188 -1.15177321434020996
-0.64048236608505249 -0.224898964166641235 -0.812493562698364258
0.134834170341491699 0.616456687450408936 -1.20959067344665527
0.200704187154769897 0.404930531978607178 -0.668113887310028076
-0.132915079593658447 -0.901895523071289062 1.18762433528900146
-0.639863193035125732 -0.639530837535858154 -0.604412972927093506
0.588437020778656006 0.245247751474380493 0.527969598770141602
0.0978620797395706177 -1.16421246528625488 0.617289841175079346
0.0376738794147968292 1.25803554058074951 -1.05959045886993408
-0.636325657367706299 -0.300755083560943604 -0.775089919567108154
0.738835632801055908 -0.221985206007957458 0.146559923887252808
0.704691886901855469 -0.381835788488388062 -0.181411206722259521
0.644287288188934326 -0.320687711238861084 0.137432873249053955
0.0597013309597969055 -1.21648430824279785 0.429867476224899292
0.604700267314910889 -0.709808707237243652 -0.0709064453840255737
-0.570238590240478516 -0.755702197551727295 -0.487952113151550293
-0.0467943847179412842 -0.843976199626922607 1.11584162712097168
-0.687017142772674561 0.163378655910491943 0.278016805648803711
0.581569254398345947 0.35269927978515625 0.60359114408493042
0.743225038051605225 -0.327441871166229248 -0.0255021490156650543
-0.432288706302642822 0.565340757369995117 -1.44734179973602295
0.262188881635665894 0.429970264434814453 -0.774134695529937744
-0.0447917282581329346 1.27275300025939941 -0.967012286186218262
-0.620264291763305664 -0.0223306193947792053 -1.00130379199981689
0.656312704086303711 -0.458197146654129028 -0.0799330770969390869
0.56954348087310791 -0.651483237743377686 -0.20433826744556427
-0.364980876445770264 1.27375233173370361 1.09285199642181396
-0.589823484420776367 0.0326018258929252625 -0.979883790016174316
0.671573042869567871 0.100368291139602661 0.515020906925201416
-0.0860712155699729919 -0.526717782020568848 1.36452078819274902
0.305619031190872192 0.893669307231903076 0.724419474601745605
0.66454845666885376 -0.0827048420906066895 0.446049630641937256
-0.381713747978210449 1.1093134880065918 1.2986379861831665
0.266035199165344238 0.501945137977600098 -0.697598516941070557
0.201525181531906128 0.615331113338470459 -1.21129310131072998
0.615072667598724365 0.177188873291015625 0.475205391645431519
0.600048065185546875 -0.592941462993621826 -0.332296997308731079
-0.678931117057800293 0.23263123631477356 -1.14838790893554688
-0.581037342548370361 0.311782300472259521 -1.13938045501708984
-0.440172493457794189 0.594715118408203125 -1.40996181964874268
0.473789721727371216 -0.891731679439544678 0.0553118027746677399
-0.38957628607749939 0.689661145210266113 -1.51837098598480225
0.291750848293304443 -1.17637515068054199 0.493599891662597656
0.163781911134719849 0.737409591674804688 -1.29776406288146973
-0.738689661026000977 -0.110837198793888092 -0.336947828531265259
0.66920781135559082 -0.675964891910552979 0.259761333465576172
-0.0676486864686012268 0.699074387550354004 -1.26772773265838623
0.681870162487030029 -0.554992079734802246 -0.297411859035491943
0.589559793472290039 -0.7967415452003479 0.193892836570739746
0.322475433349609375 -1.02807116508483887 0.276618689298629761
0.214957788586616516 -1.17133009433746338 0.37857481837272644
-0.00629378343001008034 -0.969768881797790527 0.949677944183349609
-0.654645442962646484 0.350281208753585815 -1.18748104572296143
0.389119952917098999 -0.925882816314697266 0.172778800129890442
0.652809858322143555 -0.410464614629745483 -0.410028010606765747
0.140493050217628479 0.841002881526947021 -1.31233716011047363
-0.0419867858290672302 -0.921104490756988525 1.03395378589630127
-0.42637518048286438 1.03242301940917969 1.37051236629486084
-0.0713433548808097839 1.18266761302947998 0.9280892014503479
-0.660208642482757568 -0.0900340080261230469 -0.841824531555175781
-0.731660902500152588 0.0773799121379852295 -0.0423475392162799835
-0.150514692068099976 1.19092679023742676 0.96037757396697998
-0.696934223175048828 0.399562835693359375 1.16891074180603027
0.54235994815826416 -0.630117118358612061 -0.0897219330072402954
0.195237308740615845 1.11379146575927734 -1.16484260559082031
0.105443418025970459 0.770258069038391113 -1.3266831636428833
0.561966896057128906 -0.617936849594116211 -0.245024874806404114
0.300866931676864624 -1.06568503379821777 0.483443945646286011
0.715086936950683594 -0.411605089902877808 0.0607600882649421692
0.640404403209686279 -0.814128518104553223 0.242511942982673645
0.615533411502838135 -0.917922079563140869 0.122305393218994141
-0.677419364452362061 0.317091673612594604 1.1742708683013916
-0.738813877105712891 -0.035068657249212265 -0.549045741558074951
-0.599566519260406494 0.263028144836425781 -1.21925985813140869
-0.714622199535369873 0.167515814304351807 0.342639625072479248
-0.0501989871263504028 -0.965033352375030518 1.00142383575439453
-0.520906984806060791 0.477610349655151367 -1.35725927352905273
-0.697349488735198975 0.458698153495788574 1.05497479438781738
0.174606338143348694 -1.12279725074768066 0.58699411153793335
-0.552150607109069824 -0.702222645282745361 -0.55106276273727417
-0.0869255810976028442 -0.516610980033874512 1.35456013679504395
0.551047801971435547 -0.613187015056610107 -0.415592581033706665
0.754453897476196289 -0.441155999898910522 -0.176180720329284668
0.0185483992099761963 0.721464991569519043 -1.22897708415985107
0.571228504180908203 0.36301809549331665 0.592709124088287354
-0.59351581335067749 0.148076444864273071 -1.03707659244537354
-0.683156371116638184 0.453183889389038086 1.10982286930084229
0.59854423999786377 -0.619386911392211914 -0.0828012377023696899
0.559791982173919678 -0.769380152225494385 0.233275994658470154
0.670942962169647217 0.111983731389045715 0.474393934011459351
0.253325462341308594 0.724140822887420654 1.07866215705871582
-0.015570787712931633 0.836896657943725586 -1.29245567321777344
0.299527257680892944 -1.04164767265319824 0.349235415458679199
-0.0804084241390228271 0.814717590808868408 -1.39166772365570068
0.580712556838989258 -0.599609494209289551 -0.299378007650375366
0.211743623018264771 0.991798520088195801 0.690656721591949463
-0.624887526035308838 0.00887916982173919678 -0.884856820106506348
0.639578819274902344 -0.824645102024078369 0.223371967673301697
0.169283241033554077 0.830097973346710205 -1.27428483963012695
-0.00720712868496775627 -1.0028846263885498 1.06171023845672607
0.237721264362335205 -1.12680566310882568 0.581466853618621826
-0.69328463077545166 -0.00117938220500946045 -0.787921249866485596
0.129390135407447815 1.03456354141235352 0.756811618804931641
-0.173629686236381531 1.13623535633087158 0.99429023265838623
-0.636126041412353516 -0.423398822546005249 -0.659481406211853027
-0.683946311473846436 -0.802246689796447754 -0.413491636514663696
-0.698109269142150879 0.789551675319671631 1.07848620414733887
-0.112168371677398682 1.29600358009338379 -0.825871884822845459
-0.730166137218475342 -0.0384720750153064728 -0.611351191997528076
-0.276707768440246582 0.675720036029815674 -1.38068687915802002
0.642607450485229492 -0.587978005409240723 -0.281334519386291504
-0.621376395225524902 0.253875851631164551 -1.21198582649230957
0.417176008224487305 -0.171107679605484009 0.971240580081939697
0.270119786262512207 0.642612755298614502 1.1941227912902832
0.413333415985107422 -1.02210533618927002 0.246060505509376526
-0.296369463205337524 0.743961811065673828 -1.5075080394744873
0.280752331018447876 0.681753993034362793 -1.04945254325866699
-0.625153005123138428 0.448970615863800049 -1.35738182067871094
-0.743597149848937988 0.0434695780277252197 -0.0829289555549621582
0.0720326080918312073 -1.20472228527069092 0.65363311767578125
0.495332688093185425 -1.0459822416305542 0.0891884937882423401
0.616132199764251709 0.0237525925040245056 0.519049644470214844
-0.721831202507019043 0.379849016666412354 1.09067964553833008
-0.719982683658599854 -0.714373648166656494 -0.117174074053764343
0.663908898830413818 -0.320756673812866211 0.177359133958816528
0.187143474817276001 0.474389493465423584 -0.786383330821990967
0.184916555881500244 0.41713792085647583 -0.707607150077819824
-0.517842352390289307 0.585706353187561035 -1.33514225482940674
-0.619970738887786865 -0.805018901824951172 -0.400483757257461548
0.656188428401947021 -0.233078241348266602 0.10895092785358429
0.00564077263697981834 -0.889236271381378174 1.12243008613586426
-0.67336428165435791 -0.862366855144500732 -0.390378683805465698
-0.692603826522827148 -0.0376802980899810791 -0.287365227937698364
0.479418545961380005 0.46242821216583252 0.691258370876312256
-0.0346844345331192017 1.26200485229492188 -0.96587669849395752
-0.507723391056060791 0.617549538612365723 -1.37663638591766357
-0.624000787734985352 0.895599782466888428 1.05586731433868408
0.619926750659942627 -0.154068335890769958 0.226144731044769287
-0.684852182865142822 0.66447901725769043 0.968564689159393311
-0.160441786050796509 0.772299408912658691 -1.45029604434967041
-0.751831531524658203 0.456630051136016846 1.0805060863494873
0.175063446164131165 0.598436295986175537 -1.12118566036224365
0.53681868314743042 0.410178065299987793 0.562813997268676758
-0.467601567506790161 1.13631248474121094 0.989057242870330811
-0.415427863597869873 1.12498331069946289 0.991959631443023682
-0.0686679035425186157 0.710450351238250732 -1.25976026058197021
-0.199775710701942444 1.2056884765625 1.0124819278717041
0.645035922527313232 -0.0379180498421192169 0.373049080371856689
0.66143035888671875 -0.295436084270477295 0.373879134654998779
-0.65996938943862915 0.711398303508758545 1.02694416046142578
0.683649241924285889 -0.128928795456886292 0.30526357889175415
-0.759193122386932373 0.523958981037139893 1.00876176357269287
0.204237177968025208 0.499953985214233398 -0.82750314474105835
0.202061653137207031 0.6054878830909729 -1.21121156215667725
0.534955441951751709 -0.819635152816772461 0.0720273405313491821
0.210747450590133667 0.8079795241355896 -1.30500614643096924
0.481556802988052368 -1.10267877578735352 0.0585853457450866699
0.396457642316818237 0.6889687180519104 0.722184062004089355
0.0728341415524482727 -1.08049666881561279 0.954107761383056641
0.0749420896172523499 1.18894791603088379 -1.07715880870819092
0.173163309693336487 -1.1708829402923584 0.545265674591064453
-0.644242048263549805 0.810365140438079834 1.01729309558868408
0.67017674446105957 -0.701060891151428223 0.271470040082931519
0.122320562601089478 1.16228413581848145 -1.11812782287597656
-0.190434589982032776 1.18858993053436279 1.03185653686523438
0.55362093448638916 -0.995933294296264648 0.19379889965057373
-0.367652267217636108 1.26415777206420898 1.1117171049118042
-0.637142479419708252 -1.03566133975982666 -0.193792566657066345
0.647508442401885986 -0.305607616901397705 0.360009849071502686
0.00410875352099537849 1.09638726711273193 0.858534574508666992
0.232599601149559021 0.683889389038085938 1.11225056648254395
-0.626503586769104004 -0.458983927965164185 -0.680412769317626953
0.707929074764251709 -0.394080609083175659 -0.204468235373497009
-0.36236920952796936 1.06221818923950195 1.3834155797958374
-0.692230641841888428 -0.0511089079082012177 -0.262136071920394897
-0.467329680919647217 1.08105754852294922 1.02953660488128662
-0.313369780778884888 0.976840972900390625 1.52537572383880615
-0.689711689949035645 0.165923714637756348 -1.0930781364440918
0.718574941158294678 -0.253723084926605225 0.0701147094368934631
0.672225654125213623 -0.410578757524490356 -0.217915043234825134
0.640600025653839111 -0.559368789196014404 -0.369230598211288452
-0.521399855613708496 -0.745614707469940186 -0.459484577178955078
0.181252241134643555 0.747562706470489502 -1.255027174949646
-0.686041116714477539 0.0360609889030456543 -0.901524662971496582
-0.593297898769378662 0.990707159042358398 1.0123755931854248
0.321189999580383301 -0.998405873775482178 0.287302911281585693
-0.129366323351860046 -0.464597791433334351 1.32509350776672363
0.62743300199508667 -0.572901010513305664 -0.437467813491821289
-0.31553947925567627 0.744192719459533691 -1.42648351192474365
-0.710714042186737061 0.343871206045150757 1.21552276611328125
0.308807790279388428 -1.03047060966491699 0.337241202592849731
-0.560450136661529541 0.562212586402893066 -1.30913496017456055
-0.331468969583511353 0.633091390132904053 -1.53070986270904541
-0.173485755920410156 -0.690261960029602051 1.30839097499847412
0.573183894157409668 -0.456040412187576294 0.296624869108200073
0.2464618980884552 1.0669785737991333 -1.28708696365356445
-0.0489227846264839172 -0.69816124439239502 1.23149406909942627
0.496135085821151733 -0.909091055393218994 0.112992376089096069
0.468151628971099854 0.716800808906555176 0.72839057445526123
0.131217822432518005 1.10749626159667969 0.778844952583312988
-0.642180979251861572 0.41985774040222168 -1.22620844841003418
-0.509633064270019531 0.525607109069824219 -1.33619809150695801
0.48016434907913208 0.350596338510513306 0.62776261568069458
0.255232930183410645 1.04780209064483643 -1.29906249046325684
-0.728303372859954834 0.117701873183250427 0.169175535440444946
0.0856783166527748108 0.759027361869812012 -1.33488452434539795
0.0325699411332607269 -1.19801938533782959 0.735210776329040527
-0.357941299676895142 0.886390566825866699 1.52222728729248047
0.600639283657073975 -0.603240132331848145 0.273576408624649048
0.621887624263763428 -0.361764013767242432 -0.435147017240524292
0.361903011798858643 0.765960395336151123 0.74386972188949585
-0.689778566360473633 -0.0746954679489135742 -0.924296081066131592
0.548143565654754639 -0.960039138793945312 0.156961813569068909
-0.083111688494682312 0.784406363964080811 -1.40841531753540039
0.314809411764144897 -1.03723859786987305 0.428643077611923218
0.714105188846588135 -0.335852235555648804 0.447955876588821411
0.26591181755065918 0.459070742130279541 -0.670162618160247803
0.00492945080623030663 -0.848245322704315186 1.10062909126281738
0.358041465282440186 -0.954743862152099609 0.216894060373306274
-0.733268439769744873 0.685598075389862061 1.02826368808746338
0.21846519410610199 0.411347031593322754 -0.795808970928192139
-0.6250876784324646 -0.0728740394115447998 -0.92115473747253418
-0.749340653419494629 -0.0863684117794036865 -0.502739846706390381
0.615239202976226807 -0.223442301154136658 0.701446771621704102
-0.632540702819824219 -0.57981795072555542 -0.560583949089050293
0.0908309221267700195 -1.20433878898620605 0.788662314414978027
0.0416647493839263916 -0.993245303630828857 0.92470628023147583
0.687663257122039795 -0.513416111469268799 -0.347632825374603271
0.625901341438293457 -0.163348168134689331 0.39312279224395752
0.345646709203720093 0.720490097999572754 1.02713394165039062
0.409524291753768921 0.829252660274505615 0.670574069023132324
0.676024556159973145 -0.559467971324920654 -0.208608940243721008
-0.617398440837860107 -0.812347829341888428 -0.418736368417739868
-0.724136710166931152 -0.0366309918463230133 -0.814957380294799805
0.608212709426879883 -0.876165688037872314 0.185988679528236389
0.0138189718127250671 -0.982117414474487305 1.05221319198608398
-0.0395731665194034576 -0.63828432559967041 1.23092544078826904
-0.105533860623836517 -0.590320825576782227 1.29975581169128418
0.0304041784256696701 -1.18690991401672363 0.713410735130310059
-0.571313858032226562 0.542335927486419678 -1.27896571159362793
-0.119909442961215973 1.18564844131469727 0.930168747901916504
-0.636054575443267822 -0.0874768495559692383 -0.953937888145446777
0.277389466762542725 0.469864130020141602 -0.677388370037078857
0.624309122562408447 0.25942876935005188 0.631186723709106445
0.742522716522216797 -0.425136715173721313 -0.00769152864813804626
-0.661855578422546387 -0.278395175933837891 -0.732876718044281006
-0.112337112426757812 1.30704283714294434 -0.835482776165008545
0.517941474914550781 0.310182899236679077 0.569681406021118164
0.613870739936828613 -0.692725002765655518 0.225051477551460266
-0.589574038982391357 0.55353158712387085 -1.37454533576965332
-0.660083949565887451 -0.722702205181121826 -0.232403144240379333
-0.034374333918094635 -0.770319223403930664 1.15921831130981445
0.588966786861419678 -0.168906450271606445 0.671979904174804688
0.24874386191368103 0.603368818759918213 1.13608825206756592
-0.678586065769195557 -0.049192916601896286 -0.406623899936676025
-0.583891689777374268 -0.613907277584075928 -0.501576781272888184
0.546754896640777588 -0.824590504169464111 0.219315081834793091
-0.661212563514709473 -0.721775472164154053 -0.202659890055656433
0.0808786004781723022 -1.09278225898742676 0.931313753128051758
0.0899024233222007751 -1.13862478733062744 0.886907815933227539
-0.68868255615234375 0.102186709642410278 0.158464744687080383
-0.0694518312811851501 0.834080874919891357 -1.35434079170227051
0.635790467262268066 -0.565654873847961426 0.338027745485305786
0.323570668697357178 -1.1346275806427002 0.38704720139503479
-0.621753156185150146 -0.806281983852386475 -0.391395241022109985
0.675541222095489502 -0.0809716582298278809 0.349066972732543945
-0.681725621223449707 -0.431080907583236694 -0.746869504451751709
-0.688306033611297607 -0.370676249265670776 -0.740353167057037354
0.67143779993057251 0.135225251317024231 0.515897035598754883
-0.73756563663482666 -0.113862350583076477 -0.404764443635940552
0.473941385746002197 -0.901928424835205078 0.222457826137542725
0.579550266265869141 -1.02822184562683105 0.190315008163452148
-0.670507490634918213 -0.0819056183099746704 -0.851693570613861084
-0.205825462937355042 1.20985925197601318 1.02374053001403809
-0.631161391735076904 -0.858601629734039307 -0.393658608198165894
0.281914651393890381 0.469043195247650146 -0.824753105640411377
0.601383984088897705 0.324980050325393677 0.574550449848175049
0.626819372177124023 0.245190531015396118 0.516999781131744385
0.243843287229537964 0.542847633361816406 -0.716890573501586914
0.102429412305355072 -1.27076387405395508 0.41839107871055603
-0.715787887573242188 0.167597055435180664 0.353616923093795776
0.25489962100982666 0.543576300144195557 1.28487861156463623
0.502142965793609619 0.484640240669250488 0.592159032821655273
-0.0952773839235305786 -0.629747450351715088 1.29162228107452393
0.648238062858581543 -0.518335878849029541 -0.134666725993156433
0.4269065260887146 -0.964971840381622314 0.14910241961479187
0.342434316873550415 0.837120234966278076 0.659162282943725586
0.663832724094390869 0.227778047323226929 0.52882760763168335
-0.747773408889770508 0.637634158134460449 1.0037841796875
-0.0803828611969947815 1.14097464084625244 0.867302894592285156
0.241895288228988647 0.964374542236328125 0.678233087062835693
0.456205666065216064 0.572608590126037598 0.609341204166412354
-0.0953426361083984375 -0.547987222671508789 1.39475739002227783
-0.638219892978668213 -0.923290133476257324 -0.0774338394403457642
0.0886306315660476685 -1.19400870800018311 0.626472115516662598
-0.68217390775680542 -0.0781957283616065979 -0.44379696249961853
-0.582963883876800537 0.992345094680786133 1.02378642559051514
-0.711454272270202637 -0.724175631999969482 -0.176330640912055969
0.154869213700294495 -1.23247992992401123 0.396768540143966675
-0.684920430183410645 0.162041187286376953 -1.01813638210296631
0.616575241088867188 -0.356452375650405884 0.454200148582458496
-0.698373019695281982 -0.830083072185516357 -0.311800897121429443
-0.704624533653259277 0.521546304225921631 0.991047799587249756
0.61481785774230957 -0.961977183818817139 0.176905155181884766
-0.18317607045173645 -0.651270687580108643 1.32859838008880615
-0.637243151664733887 -0.353996008634567261 -0.72461700439453125
-0.673764407634735107 -0.0324241332709789276 -1.00646114349365234
-0.55695420503616333 -0.638824343681335449 -0.575755953788757324
-0.670341372489929199 -0.744410812854766846 -0.274383723735809326
0.743539273738861084 -0.45858919620513916 -0.226131096482276917
-0.690703213214874268 -0.170633763074874878 -0.86490786075592041
0.751064300537109375 -0.460033893585205078 -0.154740869998931885
0.251184999942779541 0.99109184741973877 0.727224588394165039
0.682896673679351807 -0.449948519468307495 -0.375171124935150146
0.037210412323474884 -1.09273183345794678 0.919881284236907959
-0.272773891687393188 0.618010163307189941 -1.45730769634246826
-0.74060666561126709 0.0530402064323425293 0.082043088972568512
-0.581984221935272217 0.171586155891418457 -1.10494613647460938
0.22342364490032196 0.532824695110321045 -0.708223283290863037
0.411541759967803955 0.766676545143127441 0.856428086757659912
0.0393213368952274323 -1.14057767391204834 0.813545644283294678
-0.0503259859979152679 -0.963755309581756592 1.01178264617919922
-0.71699899435043335 -0.111290276050567627 -0.380080431699752808
0.618998467922210693 -0.0960038155317306519 0.270838081836700439
-0.597511351108551025 0.215174406766891479 -1.04498064517974854
-0.7039223313331604 -0.0311172604560852051 -0.452523469924926758
-0.173704400658607483 -0.670678377151489258 1.31880307197570801
-0.568136274814605713 0.272523105144500732 -1.18657922744750977
0.586017072200775146 -0.956488251686096191 0.201173365116119385
-0.600264072418212891 0.534967005252838135 -1.36603224277496338
-0.550187766551971436 0.389034897089004517 -1.21728479862213135
0.417174309492111206 0.758887350559234619 0.643043458461761475
0.626990437507629395 -0.0826903954148292542 0.320135891437530518
0.471987694501876831 0.633985936641693115 0.718087852001190186
0.506548047065734863 -0.869212627410888672 0.0451102107763290405
-0.563371896743774414 -0.924465060234069824 -0.407669275999069214
-0.698848545551300049 0.585396766662597656 1.00918126106262207
-0.644230842590332031 -0.469749122858047485 -0.634129166603088379
-0.422401189804077148 1.09688425064086914 1.3812795877456665
-0.386232584714889526 0.653690636157989502 -1.40670812129974365
0.262446075677871704 0.622202396392822266 -1.10145318508148193
-0.758850038051605225 0.536228477954864502 0.997027695178985596
0.18247908353805542 0.556348264217376709 -0.817602694034576416
-0.375119388103485107 1.09262895584106445 1.38189101219177246
-0.502012789249420166 1.0981910228729248 0.986465632915496826
0.380243569612503052 0.796323776245117188 0.764043033123016357
0.0891759991645812988 0.732744097709655762 -1.1851046085357666
-0.754531025886535645 -0.0805823057889938354 -0.433819860219955444
-0.345731049776077271 0.734362244606018066 -1.46761906147003174
-0.0579045899212360382 0.753967225551605225 -1.23876142501831055
-0.401896864175796509 1.19453823566436768 1.06384062767028809
-0.673250973224639893 0.665759146213531494 0.99017411470413208
-0.402256697416305542 0.575082957744598389 -1.48821663856506348
0.682318270206451416 -0.262843728065490723 0.258671939373016357
0.370382010936737061 0.747061431407928467 0.688883185386657715
0.288024097681045532 0.505018055438995361 -0.865719497203826904
0.667416870594024658 -0.418485671281814575 -0.0319562815129756927
0.620145022869110107 -0.809144675731658936 0.28141862154006958
-0.371227562427520752 1.28107285499572754 1.01443445682525635
0.217392042279243469 -1.16808164119720459 0.303306251764297485
-0.560636579990386963 1.05567538738250732 1.07535314559936523
-0.103273898363113403 -0.957068562507629395 1.09015119075775146
0.542414188385009766 -0.618192434310913086 -0.152595654129981995
-0.591494381427764893 0.331575006246566772 -1.13109040260314941
0.08139791339635849 1.26794195175170898 -1.03505039215087891
-0.135062411427497864 -0.913710176944732666 1.17579281330108643
0.304758459329605103 0.680203616619110107 0.975975751876831055
-0.734205961227416992 -0.0160440355539321899 -0.335791110992431641
0.510748624801635742 -1.06292533874511719 0.157282516360282898
-0.656621754169464111 -0.349185168743133545 -0.701231718063354492
-0.665753304958343506 0.952732324600219727 1.03027510643005371
-0.691184818744659424 -0.107558786869049072 -0.873636960983276367
-0.194913744926452637 -0.508914470672607422 1.3531806468963623
-0.721956133842468262 -0.0152713954448699951 -0.400351613759994507
-0.0837903395295143127 0.753390491008758545 -1.42553293704986572
-0.296857684850692749 0.666020870208740234 -1.39117324352264404
-0.133012399077415466 -0.661250591278076172 1.37073993682861328
-0.678481459617614746 -0.969811439514160156 -0.17832241952419281
-0.647066116333007812 -0.935366153717041016 -0.0902208834886550903
0.343610137701034546 0.869579851627349854 0.644251465797424316
0.19560590386390686 0.587992846965789795 -1.12094259262084961
0.298207074403762817 0.586381435394287109 -0.834925353527069092
0.482009619474411011 -1.04736101627349854 0.136649876832962036
-0.72727668285369873 0.127742350101470947 0.169316157698631287
-0.534938514232635498 1.0862191915512085 0.984069347381591797
-0.14728960394859314 -0.893974184989929199 1.13267624378204346
0.263405025005340576 0.695679962635040283 1.01018798351287842
-0.610842585563659668 -0.964506387710571289 -0.213125690817832947
-0.534441709518432617 1.10601186752319336 0.983262181282043457
-0.784237146377563477 0.0570744723081588745 -0.0918853580951690674
-0.313346177339553833 1.15944242477416992 0.996644437313079834
-0.00378462905064225197 1.08679378032684326 0.931637108325958252
0.546198248863220215 -0.849566042423248291 0.095966830849647522
0.633645534515380859 -0.430018186569213867 -0.281870812177658081
-0.431854784488677979 0.585889935493469238 -1.52805924415588379
-0.510799109935760498 1.06803131103515625 1.00794744491577148
-0.306060314178466797 0.752112627029418945 -1.45791995525360107
0.356784641742706299 0.680512070655822754 0.998422801494598389
0.216858834028244019 0.601600170135498047 1.19831311702728271
0.605059623718261719 -0.697418034076690674 0.29720538854598999
-0.693865358829498291 -0.175158038735389709 -0.835357666015625
-0.127727016806602478 0.674015164375305176 -1.35699081420898438
0.676781117916107178 -0.267426848411560059 0.530648887157440186
-0.0219106376171112061 -0.912367820739746094 1.0347057580947876
-0.702584624290466309 0.00909952819347381592 -0.168819129467010498
0.352440088987350464 -1.03901171684265137 0.407363235950469971
-0.591435074806213379 -0.546758055686950684 -0.641722917556762695
-0.655413031578063965 0.0265379846096038818 -0.88366013765335083
0.533671259880065918 -0.637651383876800537 -0.258888661861419678
0.176371335983276367 0.732616305351257324 -1.12720870971679688
-0.430110692977905273 0.603876054286956787 -1.53930842876434326
-0.746952354907989502 0.665017247200012207 0.974148869514465332
0.702761471271514893 -0.331859081983566284 -0.0901100337505340576
0.637034237384796143 0.2542763352394104 0.527753233909606934
-0.404517590999603271 1.15543079376220703 1.07208418846130371
0.621666550636291504 -0.204483240842819214 0.26214599609375
0.520114660263061523 -0.596927762031555176 -0.338487327098846436
0.269519537687301636 0.604654073715209961 1.14661777019500732
0.21612994372844696 -1.20474755764007568 0.531563341617584229
-0.257651448249816895 1.20631730556488037 0.973800420761108398
-0.718641579151153564 0.0590933859348297119 0.100431747734546661
-0.591442406177520752 -0.641214191913604736 -0.49192357063293457
0.72409743070602417 -0.461820662021636963 -0.282344698905944824
-0.699423611164093018 -0.808616340160369873 -0.276226282119750977
-0.00442999647930264473 1.31470346450805664 -0.903873622417449951
0.668901741504669189 -0.420010268688201904 -0.145382344722747803
-0.690098881721496582 0.156522750854492188 0.218762829899787903
0.315065950155258179 0.910049200057983398 0.723584890365600586
-0.664637506008148193 0.243527770042419434 -1.03806352615356445
0.693729639053344727 -0.343733906745910645 -0.112723842263221741
0.566558480262756348 -0.543913960456848145 0.302273452281951904
-0.601852297782897949 0.0800310969352722168 -0.957123994827270508
-0.688539266586303711 -0.0819600224494934082 -0.838418722152709961
0.190158054232597351 0.851004719734191895 -1.28191494941711426
-0.276162296533584595 0.657636702060699463 -1.38936471939086914
0.611365258693695068 -0.553127169609069824 -0.133948057889938354
0.194526612758636475 0.574568629264831543 -0.846846520900726318
-0.722538530826568604 0.539628326892852783 1.05237019062042236
-0.581402063369750977 -0.942535340785980225 -0.282936543226242065
-0.164177238941192627 -0.592778682708740234 1.35798728466033936
-0.709361255168914795 0.0681723058223724365 0.0821844190359115601
-0.733781397342681885 -0.0506186597049236298 -0.719124138355255127
-0.615994691848754883 -0.631127417087554932 -0.629606246948242188
-0.466980278491973877 0.676649391651153564 -1.49356341361999512
0.599928498268127441 -0.601380288600921631 0.28276592493057251
-0.314619213342666626 1.15069854259490967 1.03703093528747559
-0.547110021114349365 0.605471968650817871 -1.34746122360229492
0.0414851196110248566 -1.16676032543182373 0.723978936672210693
-0.643517971038818359 0.165770202875137329 -0.977328658103942871
-0.58761829137802124 -0.94896090030670166 -0.353040784597396851
0.604323804378509521 -0.673882961273193359 0.302988201379776001
-0.0138589255511760712 -1.03650343418121338 1.02056646347045898
0.48154178261756897 -0.725667655467987061 0.0644038021564483643
0.650858044624328613 -0.270311713218688965 0.594568967819213867
0.683108687400817871 -0.295610964298248291 0.387443631887435913
-0.683015406131744385 -0.309935033321380615 -0.78971177339553833
0.532381832599639893 -1.03448224067687988 0.195479601621627808
0.208670437335968018 1.10506081581115723 -1.2623525857925415
0.208292707800865173 0.545331656932830811 1.20504879951477051
-0.631710410118103027 -0.767229139804840088 -0.415933996438980103
-0.251800030469894409 0.649023234844207764 -1.50945544242858887
-0.665862679481506348 -0.889031171798706055 -0.106900051236152649
-0.0191239397972822189 -0.757269203662872314 1.25406980514526367
0.0433328934013843536 -1.20256876945495605 0.693681418895721436
0.343097537755966187 -1.10324060916900635 0.434077799320220947
0.624643266201019287 -0.501645743846893311 -0.185165509581565857
0.0609581619501113892 -1.14545488357543945 0.73453974723815918
0.597798764705657959 0.216075360774993896 0.5180511474609375
-0.63723379373550415 -0.821022093296051025 -0.358744591474533081
0.581436872482299805 -0.817327320575714111 0.173408195376396179
0.434167146682739258 -0.824748694896697998 0.0372395068407058716
0.588310301303863525 -0.458308398723602295 0.37548828125
-0.0479879230260848999 0.765063226222991943 -1.2412644624710083
0.568509280681610107 -0.75386887788772583 -0.0801147222518920898
0.346440106630325317 -0.995247900485992432 0.228675410151481628
-0.580278933048248291 0.322042793035507202 -1.13880610466003418
0.0578945577144622803 1.06104755401611328 0.776690423488616943
0.458949178457260132 -0.963793635368347168 0.187327846884727478
-0.402459949254989624 1.05524706840515137 1.43194842338562012
0.73291391134262085 -0.241884142160415649 0.19556879997253418
-0.631835222244262695 0.432115316390991211 -1.32546746730804443
-0.181182771921157837 0.725342094898223877 -1.48030376434326172
-0.646333813667297363 -0.917496681213378906 -0.142159134149551392
0.597500205039978027 -0.8738517165184021 0.204002931714057922
-0.72490537166595459 -0.0567428730428218842 -0.226685240864753723
0.525360465049743652 -0.858243405818939209 0.0539133511483669281
0.715555906295776367 -0.515571892261505127 -0.257375657558441162
0.318548411130905151 0.671319365501403809 1.00967419147491455
-0.197052121162414551 -0.454782694578170776 1.34281814098358154
0.614151239395141602 -0.448671013116836548 -0.296772539615631104
0.552336692810058594 -0.831894397735595703 0.000760354101657867432
0.497096329927444458 -0.66145479679107666 -0.0883450359106063843
-0.743703246116638184 0.553028345108032227 1.03849005699157715
0.648759365081787109 -0.253251194953918457 0.109573587775230408
-0.347238302230834961 0.874092936515808105 1.56219124794006348
-0.0817773416638374329 1.16059315204620361 0.951312541961669922
0.269733160734176636 0.692810952663421631 -1.06123495101928711
0.599149107933044434 -0.587916731834411621 -0.246178999543190002
0.0488504469394683838 1.27942800521850586 -1.01594424247741699
0.33169853687286377 0.825548291206359863 0.690452694892883301
0.19915066659450531 0.701535522937774658 -1.00786674022674561
0.335136979818344116 -1.11356854438781738 0.443701386451721191
0.641205191612243652 -0.206577807664871216 0.623825371265411377
-0.758397400379180908 0.534281075000762939 1.01872932910919189
-0.343614459037780762 1.03049135208129883 1.42397618293762207
0.589589059352874756 -0.206680461764335632 0.750006556510925293
-0.785262167453765869 0.115428999066352844 -0.0486818514764308929
-0.709022641181945801 0.780739903450012207 1.05591702461242676
-0.751174449920654297 0.0538740605115890503 0.0641951262950897217
0.230663478374481201 0.994875669479370117 0.649651527404785156
-0.722981631755828857 0.138179764151573181 0.301839768886566162
0.607315778732299805 -0.50186455249786377 -0.214388296008110046
0.6472969651222229 -0.732995927333831787 0.296214371919631958
-0.625389635562896729 0.467365920543670654 -1.35866105556488037
-0.751177191734313965 0.485702753067016602 1.04510438442230225
-0.699136078357696533 -0.0464572682976722717 -0.916064918041229248
0.0148813426494598389 -0.816454648971557617 1.17399764060974121
0.261178880929946899 -1.07570445537567139 0.446799486875534058
0.622726023197174072 -0.662962794303894043 0.298599928617477417
-0.534823596477508545 0.62824702262878418 -1.39735627174377441
-0.624315857887268066 0.476791083812713623 -1.34875309467315674
0.60226064920425415 -0.632263541221618652 0.287454009056091309
-0.134408950805664062 -0.551780223846435547 1.36549925804138184
-0.516037166118621826 -0.673669517040252686 -0.525670528411865234
0.751584112644195557 -0.440956920385360718 -0.0716700851917266846
-0.541589915752410889 0.456487953662872314 -1.24048066139221191
-0.296834975481033325 0.75214618444442749 -1.46836161613464355
-0.589109957218170166 -0.685952842235565186 -0.565627515316009521
-0.600300788879394531 0.182405859231948853 -1.16484153270721436
0.599804937839508057 -0.624096989631652832 -0.468586266040802002
-0.140732064843177795 1.13189256191253662 0.991241753101348877
-0.693990886211395264 -0.0819377973675727844 -0.818441927433013916
0.656976640224456787 -0.44985353946685791 -0.137730985879898071
0.670967996120452881 0.13559897243976593 0.495794981718063354
-0.649589776992797852 0.134548097848892212 -0.954879403114318848
-0.713359415531158447 -0.15300220251083374 -0.459902167320251465
-0.63543015718460083 -0.103679612278938293 -0.841408789157867432
-0.518112778663635254 0.478060007095336914 -1.28765451908111572
0.119290217757225037 -1.23599541187286377 0.653745710849761963
0.617498338222503662 -0.333089947700500488 0.370639443397521973
-0.537293434143066406 -0.663878023624420166 -0.551786482334136963
-0.710661411285400391 -0.693715691566467285 -0.177375331521034241
0.0698929578065872192 -1.01011013984680176 0.947982728481292725
0.564049959182739258 -0.579770088195800781 -0.264107972383499146
0.00486524542793631554 -0.988356649875640869 0.929422914981842041
0.6214028000831604 -0.189825713634490967 0.250444412231445312
0.665421545505523682 -0.42006605863571167 -0.370989054441452026
-0.434616774320602417 1.11831521987915039 1.3598017692565918
0.130307406187057495 1.23928260803222656 -1.11249089241027832
-0.277972608804702759 0.706075370311737061 -1.5334622859954834
0.64681696891784668 0.0143273100256919861 0.410111397504806519
0.133694112300872803 -1.25182580947875977 0.406629443168640137
0.275298863649368286 -1.09315609931945801 0.307678461074829102
-0.718033254146575928 0.0831774026155471802 -0.0110405273735523224
-0.597084939479827881 0.204878896474838257 -1.04549252986907959
0.606976866722106934 -0.213757619261741638 0.722170770168304443
-0.204983875155448914 -0.47461700439453125 1.4012908935546875
0.22869873046875 0.406675457954406738 -0.712624013423919678
0.50361335277557373 0.32960808277130127 0.636400818824768066
-0.257578462362289429 0.768005251884460449 -1.486258864402771
-0.0610181652009487152 -0.946780622005462646 1.02270746231079102
0.236069068312644958 0.699726223945617676 -0.925459623336791992
0.646425068378448486 -0.369555264711380005 0.0388990230858325958
-0.673061728477478027 -0.574589729309082031 -0.620892763137817383
0.314262360334396362 1.00267279148101807 0.684870898723602295
0.571343541145324707 -0.636819660663604736 -0.370370656251907349
-0.636171162128448486 -0.0860809460282325745 -0.942238152027130127
-0.550660192966461182 0.417655766010284424 -1.34169816970825195
0.240882232785224915 -1.13049530982971191 0.352076202630996704
0.396257847547531128 0.659228146076202393 0.710884153842926025
0.516867935657501221 0.389477074146270752 0.552803099155426025
-0.60674363374710083 -0.533018350601196289 -0.607197105884552002
-0.330776423215866089 1.2532353401184082 1.14088201522827148
0.647030234336853027 -0.256250053644180298 0.248967990279197693
0.371228158473968506 0.767511487007141113 0.832482218742370605
0.669084072113037109 -0.571996092796325684 -0.257865250110626221
0.537375390529632568 0.290597379207611084 0.550113499164581299
0.176613673567771912 -1.14786386489868164 0.633399665355682373
-0.749391376972198486 -0.098845362663269043 -0.38038209080696106
0.662362456321716309 0.134869113564491272 0.454476296901702881
-0.685960531234741211 -0.876081407070159912 -0.378440052270889282
-0.747389256954193115 0.647217690944671631 1.00430810451507568
0.124653264880180359 1.09795737266540527 0.816917836666107178
0.0821195468306541443 -1.14920759201049805 0.875975966453552246
0.230940535664558411 0.649743378162384033 -0.885362625122070312
0.731357574462890625 -0.360916823148727417 -0.122205808758735657
-0.144970610737800598 -0.780191421508789062 1.28883242607116699
-0.133144065737724304 -0.64175647497177124 1.38998103141784668
-0.550116062164306641 -0.741237103939056396 -0.448082208633422852
-0.166070818901062012 -0.48197174072265625 1.39220941066741943
-0.752014756202697754 0.588345587253570557 0.971573054790496826
-0.153410136699676514 0.69603496789932251 -1.4486088752746582
-0.594758391380310059 0.139097064733505249 -1.00756525993347168
-0.129151389002799988 -0.457497537136077881 1.34396219253540039
0.665770053863525391 0.0425231456756591797 0.421959757804870605
-0.0356603935360908508 -0.803538084030151367 1.13822698593139648
0.238884642720222473 -1.19394636154174805 0.520870327949523926
-0.664999067783355713 0.906920015811920166 1.01221132278442383
-0.139258936047554016 -0.510421633720397949 1.32502067089080811
0.458034366369247437 -0.813275277614593506 -0.00350603833794593811
-0.101238444447517395 1.32144010066986084 -0.891144514083862305
-0.700524866580963135 -0.628146708011627197 0.0556334368884563446
0.0362694449722766876 -0.976159274578094482 0.95165783166885376
-0.580386877059936523 0.236172974109649658 -1.11989080905914307
-0.398400723934173584 1.22170639038085938 1.2025916576385498
0.596345722675323486 -0.133719563484191895 0.779571950435638428
0.178968325257301331 0.819639801979064941 -1.26560556888580322
0.0148596353828907013 -1.06272685527801514 0.952922224998474121
0.102098226547241211 0.803300619125366211 -1.28390812873840332
0.194380074739456177 1.18055832386016846 -1.17530679702758789
0.52618873119354248 -0.778501033782958984 0.0599454008042812347
-0.733587801456451416 0.150564253330230713 0.190360963344573975
0.0333516597747802734 -1.21874558925628662 0.757111072540283203
0.45422065258026123 0.412590324878692627 0.621106743812561035
0.478844434022903442 0.62420576810836792 0.653109908103942871
0.232168421149253845 0.408364593982696533 -0.730126738548278809
0.368037521839141846 0.91484367847442627 0.710747778415679932
0.576590478420257568 -0.904381692409515381 0.231295272707939148
0.585511684417724609 -0.953047573566436768 0.113980427384376526
-0.399208962917327881 1.14727437496185303 1.20577168464660645
0.509097456932067871 -0.653796613216400146 -0.0884808897972106934
0.0934556946158409119 0.802825689315795898 -1.3025968074798584
0.545543313026428223 -0.138514399528503418 0.850583434104919434
-0.0254725776612758636 -0.771051406860351562 1.14867198467254639
0.0715300515294075012 -1.2287142276763916 0.379653066396713257
-0.455307602882385254 1.11040043830871582 1.05862009525299072
0.613052606582641602 -0.89788973331451416 0.127718612551689148
-0.0914803072810173035 -0.879848480224609375 1.18468594551086426
0.429387003183364868 0.804421901702880859 0.715820908546447754
0.656884610652923584 0.226035207509994507 0.578136801719665527
0.145718872547149658 -1.23452198505401611 0.614793360233306885
-0.581768810749053955 0.99279475212097168 1.03429770469665527
0.622922658920288086 0.097995072603225708 0.44414985179901123
0.00404474092647433281 -0.912259757518768311 1.1101691722869873
0.684844136238098145 -0.384878635406494141 0.403542160987854004
0.615006506443023682 -0.00327085703611373901 0.41540798544883728
0.190757840871810913 0.870049715042114258 -1.34173190593719482
-0.40186387300491333 1.13432681560516357 1.24714434146881104
-0.715773344039916992 -0.15313093364238739 -0.490442574024200439
0.441091001033782959 -0.935156762599945068 0.110839486122131348
-0.723045468330383301 0.0611223280429840088 0.0330121815204620361
0.199221566319465637 1.07350659370422363 -1.19663918018341064
-0.101871475577354431 -0.89032512903213501 1.19320809841156006
-0.530862510204315186 0.458078145980834961 -1.35949802398681641
0.664843261241912842 -0.244238093495368958 0.0880544409155845642
-0.627499520778656006 -0.437267273664474487 -0.690501034259796143
0.253794401884078979 0.723028302192687988 1.04013597965240479
0.0637839660048484802 0.82422405481338501 -1.31143176555633545
0.1961173415184021 1.0356522798538208 -1.23980462551116943
-0.308597207069396973 0.655668795108795166 -1.39120161533355713
-0.720792651176452637 0.0117010846734046936 -0.263546377420425415
-0.698716580867767334 -0.82997363805770874 -0.300195515155792236
0.507403135299682617 -0.859649837017059326 0.0532570630311965942
0.531987488269805908 -0.580589234828948975 -0.337039381265640259
0.708289682865142822 -0.317496597766876221 0.486503124237060547
0.639955878257751465 -0.621142387390136719 -0.179774180054664612
