ply
format ascii 1.0
element vertex 749
comment vertices
property float x
property float y
property float z
end_header
0.402612566947937012 -0.164932385087013245 0.94718015193939209
0.251754403114318848 0.649701774120330811 1.19861042499542236
0.422726988792419434 -1.02985262870788574 0.243175327777862549
-0.301392257213592529 0.75027388334274292 -1.50677955150604248
0.291983246803283691 0.679873406887054443 -1.04414772987365723
-0.613165795803070068 0.448557525873184204 -1.34586417675018311
-0.743909537792205811 0.0462690666317939758 -0.0685982406139373779
0.0707245916128158569 -1.21088242530822754 0.655521035194396973
0.503184676170349121 -1.06002426147460938 0.072202727198600769
0.613813996315002441 0.0261546429246664047 0.514720022678375244
-0.7338523268699646 0.418385893106460571 1.07792389392852783
-0.723795115947723389 -0.708021819591522217 -0.108827084302902222
0.664100110530853271 -0.325847774744033813 0.172774851322174072
0.191411137580871582 0.458614736795425415 -0.782660245895385742
0.191411137580871582 0.40832868218421936 -0.692145347595214844
-0.512593686580657959 0.589358508586883545 -1.33580696582794189
-0.63328021764755249 -0.798536717891693115 -0.380371809005737305
0.664100110530853271 -0.235332861542701721 0.112431570887565613
0.000324109365465119481 -0.878994405269622803 1.11815273761749268
-0.683566272258758545 -0.84882277250289917 -0.370314598083496094
-0.703680694103240967 -0.0442458391189575195 -0.279799669981002808
0.473013073205947876 0.468671947717666626 0.695749878883361816
-0.0298475250601768494 1.26319169998168945 -0.963690102100372314
-0.502536475658416748 0.619530141353607178 -1.37603580951690674
-0.663451850414276123 0.911189258098602295 1.05780947208404541
0.623871266841888428 -0.164932385087013245 0.223060905933380127
-0.713737905025482178 0.669816195964813232 0.977351784706115723
-0.150534063577651978 0.770388305187225342 -1.45649349689483643
-0.764023959636688232 0.478729158639907837 1.07792389392852783
0.181353926658630371 0.599415719509124756 -1.1145482063293457
0.533356308937072754 0.418385893106460571 0.565006077289581299
-0.492479264736175537 1.15256237983703613 0.987408995628356934
-0.442193210124969482 1.13244795799255371 0.987408995628356934
-0.0499619506299495697 0.710045039653778076 -1.26540648937225342
-0.220934554934501648 1.2129056453704834 1.00752341747283936
0.64398568868637085 -0.0241314154118299484 0.373919069766998291
0.664100110530853271 -0.295676141977310181 0.373919069766998291
-0.693623483180999756 0.720102250576019287 1.02763783931732178
0.694271743297576904 -0.124703533947467804 0.303518593311309814
-0.774081170558929443 0.529015243053436279 1.01758062839508057
0.211525559425354004 0.488786369562149048 -0.822889089584350586
0.211525559425354004 0.609472930431365967 -1.20506322383880615
0.543413519859313965 -0.818651139736175537 0.072202727198600769
0.231639981269836426 0.810617148876190186 -1.29557812213897705
0.493127495050430298 -1.12036752700805664 0.0420310907065868378
0.392555356025695801 0.699987828731536865 0.715864300727844238
0.0707245916128158569 -1.0801386833190918 0.957237362861633301
0.0707245916128158569 1.19279122352600098 -1.08437657356262207
0.181353926658630371 -1.18071079254150391 0.544891655445098877
-0.683566272258758545 0.820674359798431396 1.01758062839508057
0.664100110530853271 -0.708021819591522217 0.263289749622344971
0.110953435301780701 1.16261959075927734 -1.13466262817382812
-0.210877344012260437 1.19279122352600098 1.02763783931732178
0.563527941703796387 -1.00973820686340332 0.182832062244415283
-0.391907155513763428 1.27324891090393066 1.10809552669525146
-0.643337428569793701 -1.01979541778564453 -0.179227560758590698
0.654042899608612061 -0.305733352899551392 0.36386185884475708
-0.00973310228437185287 1.10227632522583008 0.856665253639221191
0.221582770347595215 0.689930617809295654 1.11815273761749268
-0.623223006725311279 -0.456591516733169556 -0.682088136672973633
0.704328954219818115 -0.406305462121963501 -0.199341997504234314
-0.391907155513763428 1.08216190338134766 1.37964022159576416
-0.703680694103240967 -0.0543030500411987305 -0.259685248136520386
-0.492479264736175537 1.09221911430358887 1.02763783931732178
-0.361735522747039795 1.00170421600341797 1.52044117450714111
-0.673509061336517334 0.166955605149269104 -1.07431936264038086
0.734500586986541748 -0.255447298288345337 0.072202727198600769
0.674157321453094482 -0.416362673044204712 -0.209399208426475525
0.64398568868637085 -0.557163655757904053 -0.380371809005737305
-0.52265089750289917 -0.73819345235824585 -0.44071507453918457
0.201468348503112793 0.75027388334274292 -1.245292067527771
-0.683566272258758545 0.0462690666317939758 -0.893289625644683838
-0.623223006725311279 1.01176142692565918 1.01758062839508057
0.332212090492248535 -0.999680936336517334 0.283404171466827393
-0.140476852655410767 -0.456591516733169556 1.32935416698455811
0.633928477764129639 -0.567220866680145264 -0.44071507453918457
-0.321506679058074951 0.75027388334274292 -1.42632186412811279
-0.723795115947723389 0.388214260339736938 1.20866763591766357
0.312097668647766113 -1.02985262870788574 0.333690226078033447
-0.552822530269622803 0.569244086742401123 -1.30563533306121826
-0.331563889980316162 0.6396445631980896 -1.53695118427276611
-0.190762907266616821 -0.687907397747039795 1.30923974514007568
0.59369957447052002 -0.456591516733169556 0.303518593311309814
0.261811614036560059 1.06204748153686523 -1.30563533306121826
-0.0600191615521907806 -0.697964608669281006 1.228782057762146
0.493127495050430298 -0.909166038036346436 0.102374359965324402
0.462955862283706665 0.730159461498260498 0.725921511650085449
0.121010653674602509 1.1223907470703125 0.776207566261291504
-0.63328021764755249 0.418385893106460571 -1.21512043476104736
-0.502536475658416748 0.529015243053436279 -1.33580696582794189
0.473013073205947876 0.358042627573013306 0.635406613349914551
0.27186882495880127 1.04193305969238281 -1.31569254398345947
-0.753966748714447021 0.12672676146030426 0.182832062244415283
0.10089622437953949 0.760331094264984131 -1.33580696582794189
0.0304957441985607147 -1.19076800346374512 0.73597872257232666
-0.401964366436004639 0.911189258098602295 1.52044117450714111
0.60375678539276123 -0.607449710369110107 0.273346960544586182
0.623871266841888428 -0.366076618432998657 -0.430657863616943359
0.362383723258972168 0.770388305187225342 0.73597872257232666
-0.683566272258758545 -0.0643602609634399414 -0.923461258411407471
0.553470730781555176 -0.969509303569793701 0.142603203654289246
-0.07007637619972229 0.780445516109466553 -1.41626465320587158
0.322154879570007324 -1.03990983963012695 0.424205124378204346
0.714386165142059326 -0.335904985666275024 0.444319576025009155
0.27186882495880127 0.448557525873184204 -0.661973714828491211
0.000324109365465119481 -0.838765561580657959 1.09803831577301025
0.362383723258972168 -0.95945209264755249 0.223060905933380127
-0.764023959636688232 0.689930617809295654 1.03769505023956299
0.211525559425354004 0.398271471261978149 -0.792717456817626953
-0.613165795803070068 -0.0643602609634399414 -0.91340404748916626
-0.753966748714447021 -0.0744174718856811523 -0.480943918228149414
0.60375678539276123 -0.215218439698219299 0.695749878883361816
-0.623223006725311279 -0.577278077602386475 -0.551344394683837891
0.0908390134572982788 -1.20082521438598633 0.786264777183532715
0.0405529551208019257 -0.989623725414276123 0.927065730094909668
0.694271743297576904 -0.516934812068939209 -0.360257387161254883
0.623871266841888428 -0.154875174164772034 0.394033491611480713
0.332212090492248535 0.730159461498260498 1.01758062839508057
0.412669777870178223 0.830731570720672607 0.665578246116638184
0.694271743297576904 -0.567220866680145264 -0.219456419348716736
-0.63328021764755249 -0.808593928813934326 -0.400486230850219727
-0.723795115947723389 -0.0140742035582661629 -0.812831878662109375
0.623871266841888428 -0.878994405269622803 0.182832062244415283
0.0103813214227557182 -0.979566514492034912 1.05780947208404541
-0.0499619506299495697 -0.63762134313583374 1.228782057762146
-0.120362430810928345 -0.587335288524627686 1.29918253421783447
0.0304957441985607147 -1.18071079254150391 0.715864300727844238
-0.562879741191864014 0.549129664897918701 -1.27546370029449463
-0.130419641733169556 1.19279122352600098 0.927065730094909668
-0.623223006725311279 -0.0744174718856811523 -0.943575680255889893
0.28192603588104248 0.458614736795425415 -0.672030925750732422
0.613813996315002441 0.267527729272842407 0.62534940242767334
0.75461500883102417 -0.436477094888687134 -0.0183121785521507263
-0.663451850414276123 -0.275561720132827759 -0.712259769439697266
-0.100248008966445923 1.3034205436706543 -0.812831878662109375
0.513241887092590332 0.317813783884048462 0.565006077289581299
0.613813996315002441 -0.697964608669281006 0.213003695011138916
-0.582994163036346436 0.559186875820159912 -1.36597859859466553
-0.663451850414276123 -0.718079030513763428 -0.229513630270957947
-0.0399047359824180603 -0.768365085124969482 1.15838158130645752
0.573585152626037598 -0.154875174164772034 0.665578246116638184
0.231639981269836426 0.609472930431365967 1.1382671594619751
-0.683566272258758545 -0.0543030500411987305 -0.390429019927978516
-0.582994163036346436 -0.617506921291351318 -0.480943918228149414
0.553470730781555176 -0.828708350658416748 0.223060905933380127
-0.663451850414276123 -0.718079030513763428 -0.199341997504234314
0.0807818025350570679 -1.09019589424133301 0.937122941017150879
0.0908390134572982788 -1.13042473793029785 0.896894097328186035
-0.713737905025482178 0.116669550538063049 0.172774851322174072
-0.0600191615521907806 0.830731570720672607 -1.35592138767242432
0.654042899608612061 -0.567220866680145264 0.343747437000274658
0.322154879570007324 -1.13042473793029785 0.383976280689239502
-0.63328021764755249 -0.798536717891693115 -0.370314598083496094
0.674157321453094482 -0.0643602609634399414 0.343747437000274658
-0.673509061336517334 -0.426419883966445923 -0.742431402206420898
-0.683566272258758545 -0.366076618432998657 -0.722316980361938477
0.674157321453094482 0.136783972382545471 0.514720022678375244
-0.743909537792205811 -0.104589112102985382 -0.370314598083496094
0.473013073205947876 -0.909166038036346436 0.223060905933380127
0.59369957447052002 -1.04996705055236816 0.172774851322174072
-0.663451850414276123 -0.0643602609634399414 -0.843003571033477783
-0.230991765856742859 1.2129056453704834 1.01758062839508057
-0.643337428569793701 -0.84882277250289917 -0.370314598083496094
0.28192603588104248 0.458614736795425415 -0.822889089584350586
0.59369957447052002 0.337928205728530884 0.57506328821182251
0.623871266841888428 0.247413307428359985 0.514720022678375244
0.251754403114318848 0.529015243053436279 -0.712259769439697266
0.110953435301780701 -1.2712256908416748 0.424205124378204346
-0.7338523268699646 0.177012816071510315 0.36386185884475708
0.231639981269836426 0.569244086742401123 1.27906811237335205
0.503184676170349121 0.488786369562149048 0.595177710056304932
-0.110305219888687134 -0.627564132213592529 1.28912532329559326
0.664100110530853271 -0.52699202299118042 -0.138998717069625854
0.432784199714660645 -0.969509303569793701 0.142603203654289246
0.342269301414489746 0.830731570720672607 0.655521035194396973
0.664100110530853271 0.227298885583877563 0.524777233600616455
-0.774081170558929443 0.6396445631980896 1.01758062839508057
-0.0901907980442047119 1.14250516891479492 0.866722464561462402
0.231639981269836426 0.971532523632049561 0.675635457038879395
0.462955862283706665 0.579301297664642334 0.615292131900787354
-0.110305219888687134 -0.547106444835662842 1.39975464344024658
-0.643337428569793701 -0.909166038036346436 -0.0685982406139373779
0.0908390134572982788 -1.20082521438598633 0.62534940242767334
-0.683566272258758545 -0.0744174718856811523 -0.430657863616943359
-0.613165795803070068 1.01176142692565918 1.02763783931732178
-0.713737905025482178 -0.718079030513763428 -0.169170349836349487
0.161239489912986755 -1.23099684715270996 0.404090702533721924
-0.673509061336517334 0.156898394227027893 -1.00391888618469238
0.613813996315002441 -0.345962196588516235 0.454376786947250366
-0.703680694103240967 -0.818651139736175537 -0.299914121627807617
-0.723795115947723389 0.529015243053436279 0.997466206550598145
0.623871266841888428 -0.969509303569793701 0.162717625498771667
-0.200820118188858032 -0.647678554058074951 1.32935416698455811
-0.63328021764755249 -0.356019407510757446 -0.712259769439697266
-0.663451850414276123 -0.0241314154118299484 -0.993861734867095947
-0.552822530269622803 -0.63762134313583374 -0.571458816528320312
-0.673509061336517334 -0.73819345235824585 -0.269742459058761597
0.744557797908782959 -0.466648727655410767 -0.229513630270957947
-0.683566272258758545 -0.164932385087013245 -0.853060781955718994
0.75461500883102417 -0.476705938577651978 -0.159113138914108276
0.241697192192077637 1.00170421600341797 0.725921511650085449
0.684214532375335693 -0.456591516733169556 -0.380371809005737305
0.0304957441985607147 -1.09019589424133301 0.927065730094909668
-0.271220594644546509 0.619530141353607178 -1.46655070781707764
-0.753966748714447021 0.0663834884762763977 0.0923171490430831909
-0.572936952114105225 0.166955605149269104 -1.09443378448486328
0.231639981269836426 0.518958032131195068 -0.702202558517456055
0.402612566947937012 0.780445516109466553 0.856665253639221191
0.0304957441985607147 -1.13042473793029785 0.816436409950256348
-0.0499619506299495697 -0.95945209264755249 1.01758062839508057
-0.723795115947723389 -0.104589112102985382 -0.350200176239013672
0.623871266841888428 -0.0945319011807441711 0.273346960544586182
-0.582994163036346436 0.207184448838233948 -1.03409051895141602
-0.703680694103240967 -0.0341886281967163086 -0.44071507453918457
-0.190762907266616821 -0.667792975902557373 1.31929695606231689
-0.562879741191864014 0.267527729272842407 -1.18494868278503418
0.59369957447052002 -0.969509303569793701 0.192889273166656494
-0.593051373958587646 0.53907245397567749 -1.35592138767242432
-0.542765319347381592 0.388214260339736938 -1.21512043476104736
0.422726988792419434 0.760331094264984131 0.645463824272155762
0.623871266841888428 -0.0744174718856811523 0.323633015155792236
0.473013073205947876 0.6396445631980896 0.715864300727844238
0.513241887092590332 -0.868937194347381592 0.0319738797843456268
-0.552822530269622803 -0.919223248958587646 -0.400486230850219727
-0.723795115947723389 0.589358508586883545 1.01758062839508057
-0.643337428569793701 -0.466648727655410767 -0.631802082061767578
-0.442193210124969482 1.11233353614807129 1.37964022159576416
-0.381849944591522217 0.659758985042572021 -1.40620744228363037
0.27186882495880127 0.619530141353607178 -1.09443378448486328
-0.774081170558929443 0.53907245397567749 1.00752341747283936
0.191411137580871582 0.549129664897918701 -0.812831878662109375
-0.401964366436004639 1.11233353614807129 1.37964022159576416
-0.52265089750289917 1.11233353614807129 0.987408995628356934
0.38249814510345459 0.800559937953948975 0.756093144416809082
0.110953435301780701 0.730159461498260498 -1.17489147186279297
-0.764023959636688232 -0.0744174718856811523 -0.400486230850219727
-0.351678311824798584 0.740216672420501709 -1.46655070781707764
-0.0399047359824180603 0.75027388334274292 -1.23523485660552979
-0.432135999202728271 1.20284843444824219 1.05780947208404541
-0.703680694103240967 0.669816195964813232 0.997466206550598145
-0.391907155513763428 0.579301297664642334 -1.48666512966156006
0.684214532375335693 -0.275561720132827759 0.25323253870010376
0.372440934181213379 0.75027388334274292 0.685692667961120605
0.291983246803283691 0.498843610286712646 -0.863117992877960205
0.674157321453094482 -0.426419883966445923 -0.0384266041219234467
0.633928477764129639 -0.808593928813934326 0.273346960544586182
-0.401964366436004639 1.29336333274841309 1.00752341747283936
0.221582770347595215 -1.1706535816192627 0.303518593311309814
-0.593051373958587646 1.07210469245910645 1.07792389392852783
-0.100248008966445923 -0.949394881725311279 1.09803831577301025
0.543413519859313965 -0.617506921291351318 -0.149055927991867065
-0.582994163036346436 0.327870994806289673 -1.12460541725158691
0.0807818025350570679 1.27324891090393066 -1.04414772987365723
-0.140476852655410767 -0.909166038036346436 1.18855321407318115
0.291983246803283691 0.679873406887054443 0.967294573783874512
-0.743909537792205811 -0.0241314154118299484 -0.320028543472290039
0.523299098014831543 -1.0801386833190918 0.142603203654289246
-0.653394639492034912 -0.345962196588516235 -0.682088136672973633
-0.703680694103240967 0.971532523632049561 1.03769505023956299
-0.683566272258758545 -0.0945319011807441711 -0.863117992877960205
-0.210877344012260437 -0.496820360422134399 1.35952579975128174
-0.7338523268699646 -0.0241314154118299484 -0.380371809005737305
-0.07007637619972229 0.75027388334274292 -1.436379075050354
-0.301392257213592529 0.669816195964813232 -1.39615023136138916
-0.150534063577651978 -0.657735764980316162 1.36958301067352295
-0.683566272258758545 -0.949394881725311279 -0.159113138914108276
-0.653394639492034912 -0.919223248958587646 -0.0786554515361785889
0.342269301414489746 0.870960414409637451 0.635406613349914551
0.201468348503112793 0.589358508586883545 -1.1145482063293457
0.302040457725524902 0.579301297664642334 -0.832946360111236572
0.493127495050430298 -1.06002426147460938 0.122488781809806824
-0.753966748714447021 0.136783972382545471 0.182832062244415283
-0.552822530269622803 1.10227632522583008 0.987408995628356934
-0.150534063577651978 -0.889051616191864014 1.14832437038421631
0.251754403114318848 0.699987828731536865 1.00752341747283936
-0.613165795803070068 -0.949394881725311279 -0.199341997504234314
-0.552822530269622803 1.1223907470703125 0.987408995628356934
-0.784138381481170654 0.0563262775540351868 -0.0786554515361785889
-0.331563889980316162 1.16261959075927734 0.987408995628356934
-0.0197903141379356384 1.09221911430358887 0.927065730094909668
0.553470730781555176 -0.84882277250289917 0.0923171490430831909
0.633928477764129639 -0.436477094888687134 -0.279799669981002808
-0.422078788280487061 0.589358508586883545 -1.5268939733505249
-0.532708108425140381 1.08216190338134766 1.00752341747283936
-0.31144946813583374 0.760331094264984131 -1.45649349689483643
0.342269301414489746 0.689930617809295654 0.987408995628356934
0.201468348503112793 0.619530141353607178 1.19861042499542236
0.60375678539276123 -0.697964608669281006 0.283404171466827393
-0.693623483180999756 -0.174989596009254456 -0.822889089584350586
-0.110305219888687134 0.669816195964813232 -1.36597859859466553
0.684214532375335693 -0.255447298288345337 0.524777233600616455
-0.0197903141379356384 -0.899108827114105225 1.03769505023956299
-0.713737905025482178 0.00604022014886140823 -0.169170349836349487
0.362383723258972168 -1.03990983963012695 0.404090702533721924
-0.593051373958587646 -0.537049233913421631 -0.641859292984008789
-0.653394639492034912 0.0362118557095527649 -0.873175203800201416
0.533356308937072754 -0.647678554058074951 -0.259685248136520386
0.191411137580871582 0.730159461498260498 -1.1145482063293457
-0.422078788280487061 0.609472930431365967 -1.53695118427276611
-0.774081170558929443 0.669816195964813232 0.987408995628356934
0.714386165142059326 -0.356019407510757446 -0.0987698733806610107
0.633928477764129639 0.257470518350601196 0.524777233600616455
-0.432135999202728271 1.16261959075927734 1.06786668300628662
0.623871266841888428 -0.205161228775978088 0.25323253870010376
0.523299098014831543 -0.597392499446868896 -0.340142965316772461
0.251754403114318848 0.609472930431365967 1.14832437038421631
0.221582770347595215 -1.21088242530822754 0.534834444522857666
-0.28127780556678772 1.2129056453704834 0.967294573783874512
-0.7338523268699646 0.0764406993985176086 0.112431570887565613
-0.593051373958587646 -0.647678554058074951 -0.470886707305908203
0.724443376064300537 -0.466648727655410767 -0.289856910705566406
-0.703680694103240967 -0.798536717891693115 -0.269742459058761597
0.000324109365465119481 1.31347775459289551 -0.903346836566925049
0.674157321453094482 -0.426419883966445923 -0.149055927991867065
-0.723795115947723389 0.166955605149269104 0.233118116855621338
0.312097668647766113 0.911189258098602295 0.725921511650085449
-0.643337428569793701 0.237356096506118774 -1.0240333080291748
0.704328954219818115 -0.366076618432998657 -0.118884295225143433
0.583642363548278809 -0.547106444835662842 0.303518593311309814
-0.593051373958587646 0.0764406993985176086 -0.943575680255889893
-0.683566272258758545 -0.0643602609634399414 -0.832946360111236572
0.211525559425354004 0.850845992565155029 -1.27546370029449463
-0.28127780556678772 0.659758985042572021 -1.39615023136138916
0.623871266841888428 -0.557163655757904053 -0.138998717069625854
0.201468348503112793 0.569244086742401123 -0.843003571033477783
-0.743909537792205811 0.549129664897918701 1.05780947208404541
-0.582994163036346436 -0.929280459880828857 -0.269742459058761597
-0.18070569634437561 -0.587335288524627686 1.35952579975128174
-0.723795115947723389 0.0864979103207588196 0.0923171490430831909
-0.7338523268699646 -0.0442458391189575195 -0.732374191284179688
-0.613165795803070068 -0.627564132213592529 -0.631802082061767578
-0.462307631969451904 0.679873406887054443 -1.48666512966156006
0.60375678539276123 -0.607449710369110107 0.283404171466827393
-0.331563889980316162 1.15256237983703613 1.02763783931732178
-0.542765319347381592 0.609472930431365967 -1.34586417675018311
0.0405529551208019257 -1.16059637069702148 0.725921511650085449
-0.63328021764755249 0.156898394227027893 -0.963690102100372314
-0.593051373958587646 -0.949394881725311279 -0.340142965316772461
0.60375678539276123 -0.677850186824798584 0.293461382389068604
-0.0197903141379356384 -1.02985262870788574 1.02763783931732178
0.483070284128189087 -0.728136241436004639 0.072202727198600769
0.654042899608612061 -0.265504509210586548 0.585120499134063721
0.684214532375335693 -0.295676141977310181 0.383976280689239502
-0.683566272258758545 -0.305733352899551392 -0.772603034973144531
0.543413519859313965 -1.04996705055236816 0.182832062244415283
0.221582770347595215 1.10227632522583008 -1.28552091121673584
0.191411137580871582 0.569244086742401123 1.19861042499542236
-0.643337428569793701 -0.768365085124969482 -0.400486230850219727
-0.251106172800064087 0.649701774120330811 -1.51683676242828369
-0.673509061336517334 -0.868937194347381592 -0.0987698733806610107
-0.0298475250601768494 -0.758307874202728271 1.24889647960662842
0.0405529551208019257 -1.20082521438598633 0.695749878883361816
0.352326512336730957 -1.10025310516357422 0.434262335300445557
0.633928477764129639 -0.506877601146697998 -0.189284771680831909
0.060667380690574646 -1.14048194885253906 0.73597872257232666
0.59369957447052002 0.217241659760475159 0.514720022678375244
-0.643337428569793701 -0.808593928813934326 -0.340142965316772461
0.59369957447052002 -0.818651139736175537 0.172774851322174072
0.432784199714660645 -0.818651139736175537 0.0319738797843456268
0.59369957447052002 -0.456591516733169556 0.383976280689239502
-0.0298475250601768494 0.760331094264984131 -1.23523485660552979
0.573585152626037598 -0.758307874202728271 -0.0786554515361785889
0.352326512336730957 -0.999680936336517334 0.233118116855621338
-0.572936952114105225 0.317813783884048462 -1.13466262817382812
0.0506101697683334351 1.07210469245910645 0.776207566261291504
0.462955862283706665 -0.969509303569793701 0.182832062244415283
-0.432135999202728271 1.07210469245910645 1.42992627620697021
0.734500586986541748 -0.255447298288345337 0.192889273166656494
-0.623223006725311279 0.428443104028701782 -1.31569254398345947
-0.170648485422134399 0.720102250576019287 -1.48666512966156006
-0.653394639492034912 -0.899108827114105225 -0.128941506147384644
0.613813996315002441 -0.878994405269622803 0.202946484088897705
-0.7338523268699646 -0.0543030500411987305 -0.219456419348716736
0.533356308937072754 -0.858879983425140381 0.0420310907065868378
0.724443376064300537 -0.516934812068939209 -0.269742459058761597
0.302040457725524902 0.669816195964813232 0.997466206550598145
-0.210877344012260437 -0.436477094888687134 1.34946858882904053
0.613813996315002441 -0.456591516733169556 -0.299914121627807617
0.563527941703796387 -0.838765561580657959 -0.00825496762990951538
0.503184676170349121 -0.667792975902557373 -0.0786554515361785889
-0.764023959636688232 0.559186875820159912 1.0477522611618042
0.654042899608612061 -0.255447298288345337 0.112431570887565613
-0.391907155513763428 0.901132047176361084 1.56067001819610596
-0.0901907980442047119 1.16261959075927734 0.94718015193939209
0.28192603588104248 0.689930617809295654 -1.05420494079589844
0.60375678539276123 -0.597392499446868896 -0.249628052115440369
0.0506101697683334351 1.28330612182617188 -1.0240333080291748
0.332212090492248535 0.820674359798431396 0.685692667961120605
0.201468348503112793 0.699987828731536865 -1.00391888618469238
0.342269301414489746 -1.11031031608581543 0.444319576025009155
0.64398568868637085 -0.195104017853736877 0.615292131900787354
-0.774081170558929443 0.53907245397567749 1.02763783931732178
-0.381849944591522217 1.05199027061462402 1.419869065284729
0.573585152626037598 -0.195104017853736877 0.746035933494567871
-0.784138381481170654 0.116669550538063049 -0.0384266041219234467
-0.743909537792205811 0.790502727031707764 1.05780947208404541
-0.764023959636688232 0.0663834884762763977 0.072202727198600769
0.211525559425354004 1.00170421600341797 0.645463824272155762
-0.743909537792205811 0.146841183304786682 0.313575804233551025
0.613813996315002441 -0.506877601146697998 -0.219456419348716736
0.64398568868637085 -0.73819345235824585 0.283404171466827393
-0.613165795803070068 0.468671947717666626 -1.34586417675018311
-0.764023959636688232 0.498843610286712646 1.0477522611618042
-0.693623483180999756 -0.0341886281967163086 -0.91340404748916626
0.0103813214227557182 -0.808593928813934326 1.16843879222869873
0.261811614036560059 -1.0801386833190918 0.444319576025009155
0.623871266841888428 -0.667792975902557373 0.293461382389068604
-0.532708108425140381 0.629587352275848389 -1.39615023136138916
-0.613165795803070068 0.478729158639907837 -1.33580696582794189
0.60375678539276123 -0.63762134313583374 0.283404171466827393
-0.150534063577651978 -0.547106444835662842 1.36958301067352295
-0.512593686580657959 -0.677850186824798584 -0.511115550994873047
0.75461500883102417 -0.456591516733169556 -0.0786554515361785889
-0.532708108425140381 0.458614736795425415 -1.23523485660552979
-0.301392257213592529 0.760331094264984131 -1.46655070781707764
-0.593051373958587646 -0.687907397747039795 -0.561401605606079102
-0.593051373958587646 0.177012816071510315 -1.15477705001831055
0.613813996315002441 -0.627564132213592529 -0.470886707305908203
-0.150534063577651978 1.14250516891479492 0.987408995628356934
-0.693623483180999756 -0.0643602609634399414 -0.812831878662109375
0.664100110530853271 -0.456591516733169556 -0.138998717069625854
0.674157321453094482 0.136783972382545471 0.49460563063621521
-0.643337428569793701 0.12672676146030426 -0.943575680255889893
-0.713737905025482178 -0.134760737419128418 -0.430657863616943359
-0.623223006725311279 -0.0945319011807441711 -0.832946360111236572
-0.512593686580657959 0.478729158639907837 -1.28552091121673584
0.121010653674602509 -1.24105405807495117 0.655521035194396973
0.623871266841888428 -0.325847774744033813 0.373919069766998291
-0.532708108425140381 -0.667792975902557373 -0.54128718376159668
-0.713737905025482178 -0.687907397747039795 -0.169170349836349487
0.0707245916128158569 -1.00973820686340332 0.94718015193939209
0.563527941703796387 -0.587335288524627686 -0.269742459058761597
0.000324109365465119481 -0.979566514492034912 0.937122941017150879
0.623871266841888428 -0.195104017853736877 0.243175327777862549
0.664100110530853271 -0.426419883966445923 -0.370314598083496094
-0.452250421047210693 1.13244795799255371 1.35952579975128174
0.121010653674602509 1.24307727813720703 -1.12460541725158691
-0.28127780556678772 0.710045039653778076 -1.53695118427276611
0.64398568868637085 0.0261546429246664047 0.414147913455963135
0.141125068068504333 -1.25111126899719238 0.414147913455963135
0.27186882495880127 -1.09019589424133301 0.303518593311309814
-0.723795115947723389 0.0965551286935806274 0.00180224445648491383
-0.582994163036346436 0.197127237915992737 -1.03409051895141602
0.59369957447052002 -0.205161228775978088 0.715864300727844238
-0.220934554934501648 -0.456591516733169556 1.40981185436248779
0.231639981269836426 0.398271471261978149 -0.702202558517456055
0.493127495050430298 0.337928205728530884 0.645463824272155762
-0.261163383722305298 0.770388305187225342 -1.48666512966156006
-0.0600191615521907806 -0.939337670803070068 1.02763783931732178
0.231639981269836426 0.699987828731536865 -0.923461258411407471
0.664100110530853271 -0.376133829355239868 0.0319738797843456268
-0.663451850414276123 -0.567220866680145264 -0.611687660217285156
0.291983246803283691 1.01176142692565918 0.685692667961120605
0.583642363548278809 -0.63762134313583374 -0.370314598083496094
-0.623223006725311279 -0.0744174718856811523 -0.933518469333648682
-0.542765319347381592 0.418385893106460571 -1.33580696582794189
0.241697192192077637 -1.13042473793029785 0.343747437000274658
0.392555356025695801 0.669816195964813232 0.705807089805603027
0.513241887092590332 0.398271471261978149 0.554948866367340088
-0.603108584880828857 -0.52699202299118042 -0.601630449295043945
-0.351678311824798584 1.26319169998168945 1.1382671594619751
0.64398568868637085 -0.265504509210586548 0.243175327777862549
0.362383723258972168 0.780445516109466553 0.83655083179473877
0.684214532375335693 -0.577278077602386475 -0.269742459058761597
0.533356308937072754 0.29769936203956604 0.544891655445098877
0.181353926658630371 -1.15053915977478027 0.635406613349914551
-0.753966748714447021 -0.0945319011807441711 -0.350200176239013672
0.664100110530853271 0.136783972382545471 0.454376786947250366
-0.693623483180999756 -0.858879983425140381 -0.360257387161254883
-0.774081170558929443 0.649701774120330811 1.01758062839508057
0.110953435301780701 1.11233353614807129 0.816436409950256348
0.0807818025350570679 -1.14048194885253906 0.886836886405944824
0.231639981269836426 0.649701774120330811 -0.883232414722442627
0.744557797908782959 -0.386191040277481079 -0.128941506147384644
-0.160591274499893188 -0.778422296047210693 1.28912532329559326
-0.150534063577651978 -0.63762134313583374 1.38969743251800537
-0.562879741191864014 -0.73819345235824585 -0.430657863616943359
-0.18070569634437561 -0.466648727655410767 1.39975464344024658
-0.774081170558929443 0.589358508586883545 0.987408995628356934
-0.140476852655410767 0.689930617809295654 -1.45649349689483643
-0.582994163036346436 0.136783972382545471 -0.993861734867095947
-0.140476852655410767 -0.446534305810928345 1.34946858882904053
0.664100110530853271 0.0563262775540351868 0.424205124378204346
-0.0399047359824180603 -0.798536717891693115 1.1382671594619751
0.241697192192077637 -1.20082521438598633 0.524777233600616455
-0.703680694103240967 0.921246469020843506 1.01758062839508057
-0.150534063577651978 -0.506877601146697998 1.32935416698455811
0.462955862283706665 -0.808593928813934326 -0.00825496762990951538
-0.0901907980442047119 1.31347775459289551 -0.873175203800201416
-0.713737905025482178 -0.617506921291351318 0.072202727198600769
0.0304957441985607147 -0.969509303569793701 0.957237362861633301
-0.572936952114105225 0.227298885583877563 -1.1145482063293457
-0.422078788280487061 1.23302006721496582 1.20866763591766357
0.583642363548278809 -0.114646323025226593 0.776207566261291504
0.201468348503112793 0.820674359798431396 -1.25534927845001221
0.0103813214227557182 -1.06002426147460938 0.957237362861633301
0.121010653674602509 0.800559937953948975 -1.27546370029449463
0.191411137580871582 1.18273401260375977 -1.19500601291656494
0.533356308937072754 -0.778422296047210693 0.0621455162763595581
-0.764023959636688232 0.156898394227027893 0.202946484088897705
0.0304957441985607147 -1.21088242530822754 0.756093144416809082
0.452898651361465454 0.418385893106460571 0.62534940242767334
0.483070284128189087 0.629587352275848389 0.655521035194396973
0.231639981269836426 0.398271471261978149 -0.722316980361938477
0.362383723258972168 0.921246469020843506 0.705807089805603027
0.583642363548278809 -0.909166038036346436 0.233118116855621338
0.59369957447052002 -0.95945209264755249 0.0923171490430831909
-0.422078788280487061 1.15256237983703613 1.20866763591766357
0.513241887092590332 -0.657735764980316162 -0.0786554515361785889
0.110953435301780701 0.800559937953948975 -1.29557812213897705
0.533356308937072754 -0.124703533947467804 0.83655083179473877
-0.0298475250601768494 -0.768365085124969482 1.14832437038421631
0.0807818025350570679 -1.23099684715270996 0.383976280689239502
-0.482422053813934326 1.1223907470703125 1.05780947208404541
0.623871266841888428 -0.899108827114105225 0.122488781809806824
-0.100248008966445923 -0.878994405269622803 1.18855321407318115
0.432784199714660645 0.810617148876190186 0.715864300727844238
0.654042899608612061 0.227298885583877563 0.57506328821182251
0.151182278990745544 -1.24105405807495117 0.615292131900787354
-0.613165795803070068 1.01176142692565918 1.03769505023956299
0.623871266841888428 0.106612339615821838 0.444319576025009155
0.000324109365465119481 -0.899108827114105225 1.10809552669525146
0.704328954219818115 -0.39624825119972229 0.404090702533721924
0.613813996315002441 0.00604022014886140823 0.424205124378204346
0.211525559425354004 0.870960414409637451 -1.33580696582794189
-0.422078788280487061 1.14250516891479492 1.24889647960662842
-0.713737905025482178 -0.134760737419128418 -0.470886707305908203
0.442841440439224243 -0.939337670803070068 0.102374359965324402
-0.7338523268699646 0.0764406993985176086 0.0420310907065868378
0.211525559425354004 1.07210469245910645 -1.21512043476104736
-0.110305219888687134 -0.889051616191864014 1.19861042499542236
-0.52265089750289917 0.458614736795425415 -1.35592138767242432
0.674157321453094482 -0.245390072464942932 0.0923171490430831909
-0.623223006725311279 -0.436477094888687134 -0.692145347595214844
0.241697192192077637 0.730159461498260498 1.03769505023956299
0.0807818025350570679 0.820674359798431396 -1.30563533306121826
0.211525559425354004 1.0318758487701416 -1.25534927845001221
-0.31144946813583374 0.659758985042572021 -1.39615023136138916
-0.7338523268699646 0.00604022014886140823 -0.259685248136520386
-0.703680694103240967 -0.818651139736175537 -0.289856910705566406
0.513241887092590332 -0.858879983425140381 0.0420310907065868378
0.533356308937072754 -0.577278077602386475 -0.340142965316772461
0.714386165142059326 -0.315790563821792603 0.474491208791732788
0.654042899608612061 -0.627564132213592529 -0.189284771680831909
0.684214532375335693 -0.305733352899551392 0.383976280689239502
0.59369957447052002 -0.486763149499893188 0.383976280689239502
0.674157321453094482 -0.436477094888687134 0.283404171466827393
0.60375678539276123 -0.0140742035582661629 0.464433997869491577
0.161239489912986755 0.840788781642913818 -1.31569254398345947
0.291983246803283691 0.951418101787567139 -1.31569254398345947
0.0807818025350570679 0.75027388334274292 -1.20506322383880615
0.191411137580871582 1.09221911430358887 0.665578246116638184
-0.683566272258758545 -0.315790563821792603 -0.732374191284179688
-0.663451850414276123 -0.0140742035582661629 -0.672030925750732422
-0.261163383722305298 0.780445516109466553 -1.45649349689483643
0.654042899608612061 -0.677850186824798584 0.283404171466827393
0.664100110530853271 -0.426419883966445923 -0.259685248136520386
0.342269301414489746 -1.06002426147460938 0.243175327777862549
0.563527941703796387 0.29769936203956604 0.645463824272155762
0.473013073205947876 0.529015243053436279 0.595177710056304932
-0.220934554934501648 -0.426419883966445923 1.38969743251800537
0.59369957447052002 -0.516934812068939209 -0.299914121627807617
0.513241887092590332 0.29769936203956604 0.585120499134063721
0.291983246803283691 0.921246469020843506 -1.37603580951690674
-0.63328021764755249 -0.0241314154118299484 -0.993861734867095947
-0.200820118188858032 0.740216672420501709 -1.33580696582794189
0.342269301414489746 0.96147531270980835 0.695749878883361816
-0.562879741191864014 -0.969509303569793701 -0.249628052115440369
0.583642363548278809 -0.84882277250289917 0.0923171490430831909
-0.160591274499893188 -0.868937194347381592 1.16843879222869873
0.633928477764129639 -0.366076618432998657 0.474491208791732788
0.211525559425354004 0.679873406887054443 -0.943575680255889893
0.352326512336730957 -1.00973820686340332 0.233118116855621338
-0.774081170558929443 0.0764406993985176086 -0.108827084302902222
-0.140476852655410767 -0.788479506969451904 1.20866763591766357
-0.52265089750289917 0.448557525873184204 -1.26540648937225342
-0.713737905025482178 0.96147531270980835 1.05780947208404541
-0.764023959636688232 0.187070026993751526 0.383976280689239502
-0.683566272258758545 -0.0945319011807441711 -0.641859292984008789
0.291983246803283691 0.689930617809295654 -0.91340404748916626
0.452898651361465454 0.418385893106460571 0.585120499134063721
0.0908390134572982788 -1.19076800346374512 0.806379199028015137
-0.63328021764755249 -0.0140742035582661629 -1.00391888618469238
-0.593051373958587646 0.0764406993985176086 -0.933518469333648682
0.251754403114318848 0.870960414409637451 -1.34586417675018311
-0.723795115947723389 0.116669550538063049 0.25323253870010376
0.714386165142059326 -0.456591516733169556 -0.00825496762990951538
-0.462307631969451904 1.20284843444824219 1.228782057762146
0.462955862283706665 -0.95945209264755249 0.233118116855621338
0.342269301414489746 -0.999680936336517334 0.36386185884475708
0.533356308937072754 0.327870994806289673 0.655521035194396973
-0.442193210124969482 1.18273401260375977 1.16843879222869873
0.633928477764129639 -0.255447298288345337 0.484548419713973999
0.221582770347595215 0.599415719509124756 -0.973747313022613525
0.261811614036560059 1.00170421600341797 0.725921511650085449
0.613813996315002441 -0.376133829355239868 -0.400486230850219727
0.261811614036560059 0.659758985042572021 -1.1145482063293457
-0.7338523268699646 0.0864979103207588196 -0.0585410259664058685
-0.7338523268699646 -0.0744174718856811523 -0.249628052115440369
-0.261163383722305298 1.19279122352600098 0.967294573783874512
-0.7338523268699646 0.136783972382545471 0.283404171466827393
0.0405529551208019257 -1.13042473793029785 0.886836886405944824
-0.683566272258758545 -0.446534305810928345 -0.692145347595214844
0.291983246803283691 0.6396445631980896 -1.04414772987365723
0.623871266841888428 -0.979566514492034912 0.122488781809806824
0.261811614036560059 0.679873406887054443 -1.1145482063293457
0.261811614036560059 0.619530141353607178 -1.1145482063293457
0.28192603588104248 1.02181863784790039 0.655521035194396973
0.362383723258972168 0.760331094264984131 0.927065730094909668
-0.150534063577651978 -0.858879983425140381 1.15838158130645752
0.523299098014831543 -0.577278077602386475 -0.239570841193199158
0.261811614036560059 0.710045039653778076 -0.91340404748916626
0.654042899608612061 -0.366076618432998657 0.0319738797843456268
-0.52265089750289917 0.40832868218421936 -1.27546370029449463
-0.603108584880828857 0.378157049417495728 -1.15477705001831055
0.221582770347595215 0.689930617809295654 -1.23523485660552979
0.291983246803283691 0.438500314950942993 -0.682088136672973633
-0.723795115947723389 -0.0643602609634399414 -0.802774667739868164
0.674157321453094482 -0.325847774744033813 0.182832062244415283
0.664100110530853271 -0.677850186824798584 0.263289749622344971
-0.663451850414276123 -0.0140742035582661629 -0.702202558517456055
0.573585152626037598 -0.516934812068939209 -0.380371809005737305
0.000324109365465119481 -0.989623725414276123 1.06786668300628662
-0.623223006725311279 1.06204748153686523 1.07792389392852783
0.583642363548278809 -0.436477094888687134 -0.400486230850219727
-0.562879741191864014 -0.597392499446868896 -0.601630449295043945
0.573585152626037598 -0.989623725414276123 0.122488781809806824
-0.743909537792205811 -0.0543030500411987305 -0.551344394683837891
-0.552822530269622803 -0.627564132213592529 -0.571458816528320312
0.583642363548278809 -0.868937194347381592 0.122488781809806824
0.613813996315002441 -0.52699202299118042 -0.189284771680831909
0.121010653674602509 0.679873406887054443 -1.30563533306121826
0.573585152626037598 -0.195104017853736877 0.645463824272155762
-0.251106172800064087 0.629587352275848389 -1.42632186412811279
-0.663451850414276123 -0.708021819591522217 -0.0384266041219234467
0.704328954219818115 -0.436477094888687134 0.0219166688621044159
-0.0499619506299495697 1.17267680168151855 0.886836886405944824
0.161239489912986755 -1.21088242530822754 0.353804647922515869
-0.693623483180999756 -0.205161228775978088 -0.832946360111236572
0.0405529551208019257 0.790502727031707764 -1.35592138767242432
0.664100110530853271 -0.265504509210586548 0.424205124378204346
-0.63328021764755249 -0.356019407510757446 -0.702202558517456055
0.674157321453094482 -0.506877601146697998 -0.410543441772460938
-0.130419641733169556 -0.939337670803070068 1.1382671594619751
-0.301392257213592529 0.720102250576019287 -1.39615023136138916
0.261811614036560059 0.951418101787567139 0.715864300727844238
-0.713737905025482178 0.166955605149269104 0.273346960544586182
-0.41202157735824585 1.13244795799255371 1.00752341747283936
-0.743909537792205811 0.0965551286935806274 -0.0987698733806610107
0.503184676170349121 -0.677850186824798584 -0.0887126624584197998
-0.582994163036346436 0.217241659760475159 -1.15477705001831055
-0.7338523268699646 0.106612339615821838 -0.0484838150441646576
-0.653394639492034912 -0.929280459880828857 -0.169170349836349487
0.28192603588104248 -1.12036752700805664 0.544891655445098877
-0.753966748714447021 0.146841183304786682 0.313575804233551025
0.000324109365465119481 0.75027388334274292 -1.22517764568328857
0.191411137580871582 -1.1706535816192627 0.544891655445098877
0.191411137580871582 0.6396445631980896 -1.245292067527771
0.352326512336730957 -0.95945209264755249 0.283404171466827393
-0.673509061336517334 -0.687907397747039795 -0.159113138914108276
0.392555356025695801 -1.07008147239685059 0.333690226078033447
-0.693623483180999756 -0.114646323025226593 -0.511115550994873047
0.543413519859313965 -0.124703533947467804 0.806379199028015137
0.261811614036560059 -1.13042473793029785 0.454376786947250366
0.211525559425354004 1.09221911430358887 -1.20506322383880615
0.613813996315002441 -0.677850186824798584 0.293461382389068604
0.623871266841888428 -0.195104017853736877 0.233118116855621338
-0.723795115947723389 -0.0140742035582661629 -0.792717456817626953
0.744557797908782959 -0.245390072464942932 0.112431570887565613
0.60375678539276123 -0.808593928813934326 0.283404171466827393
-0.774081170558929443 0.559186875820159912 1.01758062839508057
-0.160591274499893188 -0.808593928813934326 1.24889647960662842
-0.663451850414276123 -0.205161228775978088 -0.863117992877960205
0.553470730781555176 -0.929280459880828857 0.0923171490430831909
-0.673509061336517334 -0.0945319011807441711 -0.470886707305908203
-0.683566272258758545 -0.939337670803070068 -0.169170349836349487
0.684214532375335693 -0.446534305810928345 -0.380371809005737305
0.0103813214227557182 0.820674359798431396 -1.245292067527771
-0.764023959636688232 0.679873406887054443 0.967294573783874512
0.60375678539276123 -0.174989596009254456 0.766150355339050293
-0.150534063577651978 -0.587335288524627686 1.35952579975128174
-0.120362430810928345 -0.758307874202728271 1.25895369052886963
0.151182278990745544 1.07210469245910645 0.665578246116638184
0.27186882495880127 0.941360890865325928 -1.29557812213897705
-0.0197903141379356384 0.800559937953948975 -1.37603580951690674
-0.743909537792205811 -0.104589112102985382 -0.309971332550048828
-0.110305219888687134 -0.949394881725311279 1.10809552669525146
-0.703680694103240967 -0.0945319011807441711 -0.692145347595214844
0.201468348503112793 0.498843610286712646 -0.742431402206420898
-0.693623483180999756 -0.0844746828079223633 -0.360257387161254883
0.563527941703796387 -0.627564132213592529 -0.380371809005737305
0.553470730781555176 -0.798536717891693115 -0.0384266041219234467
0.211525559425354004 1.13244795799255371 -1.25534927845001221
-0.170648485422134399 -0.657735764980316162 1.28912532329559326
0.302040457725524902 0.921246469020843506 0.645463824272155762
0.352326512336730957 -0.979566514492034912 0.223060905933380127
-0.562879741191864014 0.29769936203956604 -1.18494868278503418
0.623871266841888428 -0.909166038036346436 0.192889273166656494
0.543413519859313965 -0.868937194347381592 0.202946484088897705
0.302040457725524902 0.549129664897918701 -0.843003571033477783
-0.784138381481170654 0.589358508586883545 1.02763783931732178
0.291983246803283691 0.881017625331878662 0.675635457038879395
-0.140476852655410767 -0.496820360422134399 1.39975464344024658
0.191411137580871582 1.10227632522583008 0.675635457038879395
0.59369957447052002 -0.506877601146697998 0.283404171466827393
-0.7338523268699646 0.156898394227027893 0.0621455162763595581
0.151182278990745544 1.05199027061462402 0.746035933494567871
-0.623223006725311279 0.197127237915992737 -1.18494868278503418
0.201468348503112793 1.10227632522583008 -1.19500601291656494
-0.452250421047210693 1.04193305969238281 1.40981185436248779
0.28192603588104248 0.951418101787567139 -1.31569254398345947
-0.210877344012260437 1.14250516891479492 0.977351784706115723
0.764672219753265381 -0.39624825119972229 -0.0987698733806610107
-0.251106172800064087 0.629587352275848389 -1.47660791873931885
0.543413519859313965 -0.677850186824798584 -0.179227560758590698
0.332212090492248535 -1.13042473793029785 0.394033491611480713
0.422726988792419434 0.478729158639907837 0.675635457038879395
-0.100248008966445923 0.800559937953948975 -1.39615023136138916
0.563527941703796387 -0.164932385087013245 0.806379199028015137
0.684214532375335693 -0.0140742035582661629 0.434262335300445557
0.0103813214227557182 -0.758307874202728271 1.16843879222869873
-0.07007637619972229 -0.909166038036346436 1.05780947208404541
0.573585152626037598 0.247413307428359985 0.534834444522857666
-0.401964366436004639 1.18273401260375977 0.997466206550598145
0.211525559425354004 0.689930617809295654 -0.963690102100372314
0.493127495050430298 -0.174989596009254456 0.826493620872497559
0.161239489912986755 1.14250516891479492 -1.23523485660552979
0.342269301414489746 0.740216672420501709 0.866722464561462402
0.261811614036560059 -1.16059637069702148 0.36386185884475708
0.674157321453094482 -0.587335288524627686 -0.259685248136520386
-0.401964366436004639 0.589358508586883545 -1.42632186412811279
-0.7338523268699646 0.0965551286935806274 -0.0283693913370370865
0.60375678539276123 -0.537049233913421631 -0.189284771680831909
-0.291335016489028931 0.659758985042572021 -1.39615023136138916
0.291983246803283691 0.569244086742401123 -0.772603034973144531
-0.764023959636688232 0.699987828731536865 1.02763783931732178
-0.572936952114105225 -0.718079030513763428 -0.521172761917114258
-0.462307631969451904 0.569244086742401123 -1.50677955150604248
0.59369957447052002 -0.436477094888687134 0.394033491611480713
0.623871266841888428 -0.235332861542701721 0.645463824272155762
0.654042899608612061 -0.496820360422134399 -0.44071507453918457
-0.673509061336517334 0.12672676146030426 -1.07431936264038086
0.654042899608612061 -0.587335288524627686 -0.491001129150390625
-0.422078788280487061 1.22296285629272461 1.08798110485076904
0.28192603588104248 0.951418101787567139 -1.29557812213897705
-0.351678311824798584 1.26319169998168945 1.01758062839508057
0.60375678539276123 -0.0543030500411987305 0.424205124378204346
-0.593051373958587646 -0.909166038036346436 -0.400486230850219727
0.362383723258972168 -1.10025310516357422 0.414147913455963135
